ply
format ascii 1.0
element vertex 1680
property float x
property float y
property float z
end_header
0.049858 -0.015013 -0.001359
-0.067328 -0.013912 -0.006899
-0.062129 -0.017551 0.003631
0.028222 0.009431 0.000128
0.080378 -0.011000 -0.003597
-0.058344 -0.017895 -0.001165
-0.064924 -0.018632 0.005723
-0.015282 -0.019191 0.007558
-0.065681 -0.001517 -0.006081
0.086388 -0.004434 0.004347
0.074170 -0.005840 0.007219
-0.055138 0.015992 0.004711
-0.088390 -0.002344 0.003313
0.068004 0.011628 -0.002221
0.036598 -0.001024 0.008363
0.031058 -0.000794 -0.001854
0.053979 0.007293 0.000372
0.005399 -0.004555 0.007689
-0.076110 -0.006997 -0.003488
-0.043226 0.006202 0.007962
0.035966 -0.010521 0.002949
0.070350 -0.003919 0.003441
0.000232 0.015437 0.004292
0.040433 -0.006530 0.005038
0.021414 0.019943 0.006848
0.062669 -0.019515 0.007621
0.056632 -0.018796 -0.000572
-0.000985 -0.000446 0.003144
0.069130 0.006452 0.002093
0.010165 0.014050 -0.008928
0.032104 -0.011155 0.002507
0.017959 0.016968 -0.001142
0.041953 -0.010474 0.000807
0.055812 -0.006201 0.005172
-0.047797 -0.013785 0.006741
-0.047270 0.003635 -0.000288
-0.023121 0.016132 -0.006387
0.058013 -0.008439 -0.002084
-0.077799 0.013844 -0.002742
0.054412 0.006052 -0.003372
0.045180 -0.019586 -0.009641
-0.036736 0.003616 0.002433
0.035277 -0.008320 0.008285
-0.012551 -0.017072 -0.009130
-0.049713 0.015316 0.008989
-0.062297 0.007531 0.008647
-0.043512 0.007705 -0.004119
-0.070408 0.019186 0.000430
0.020742 0.010520 -0.009582
0.016554 0.018844 -0.003635
0.030432 0.002765 0.000077
-0.065151 0.017771 -0.006103
-0.048422 0.014206 0.003904
-0.008422 0.004785 -0.009269
0.049318 0.003153 0.008384
-0.005521 0.004702 0.004337
-0.007962 0.017382 0.002882
0.001437 0.011003 0.008626
-0.082199 0.000548 0.006453
0.017809 0.002381 0.004857
-0.018222 -0.014512 -0.000532
0.032096 -0.002006 0.006811
0.007178 0.007703 -0.009031
-0.010629 -0.017303 -0.003211
0.007786 0.005848 0.006608
-0.015479 -0.011494 0.004630
-0.020436 0.012836 -0.002710
-0.084843 0.004899 -0.000505
0.082133 0.010766 0.008585
0.010530 -0.018259 -0.004271
0.005523 -0.012565 -0.003861
0.076425 0.017584 0.009549
-0.001064 -0.009068 -0.006860
-0.006161 0.002675 -0.008421
-0.088152 0.019977 -0.002421
0.070391 0.010171 -0.000994
-0.044667 0.000802 -0.007872
0.001404 -0.013060 0.003489
0.080621 0.006032 -0.006746
-0.088201 -0.017703 0.005494
-0.049422 -0.008341 0.008602
-0.009339 -0.013340 0.008102
0.002207 -0.000435 0.001941
0.010303 0.019983 -0.008958
0.056977 -0.017059 -0.006715
0.061671 -0.014620 -0.001399
0.058502 -0.013901 -0.007139
0.064771 0.007182 -0.006601
0.044053 0.003912 -0.007369
-0.064706 -0.019070 -0.001357
-0.038532 -0.014024 0.006767
-0.030198 -0.019589 -0.007713
0.024921 -0.012070 0.007126
-0.076766 -0.018857 0.007434
-0.025554 0.001910 0.001795
-0.010784 0.000706 -0.005380
-0.066435 -0.008255 0.002974
0.070891 -0.002689 0.002603
0.089317 0.006810 0.001278
0.036946 0.017790 0.002252
-0.063188 0.002340 0.005343
0.070510 0.008412 -0.006919
-0.015505 -0.001892 -0.000997
0.034652 -0.007350 -0.007153
-0.066703 -0.006073 -0.003389
0.062460 0.003781 0.006383
-0.012959 -0.011267 -0.004425
0.059282 -0.010907 -0.003320
0.070959 -0.013046 -0.009930
-0.056466 0.008711 0.007254
0.070006 0.004179 -0.001033
-0.036491 0.002973 -0.000134
0.024503 0.019814 0.000530
-0.051374 -0.012822 -0.006635
0.014620 -0.009153 -0.006587
-0.076896 0.004949 0.003141
0.043996 0.003350 -0.005162
0.033701 0.018241 -0.003224
-0.071765 0.012144 0.000669
-0.020700 -0.000742 0.000173
0.065996 0.018074 0.006542
-0.061693 0.011453 0.009081
-0.073836 0.004997 0.008915
-0.042193 0.006973 0.002790
-0.057993 0.016992 0.003171
0.054768 0.004022 -0.006984
0.029160 0.012988 -0.009224
0.082984 0.017564 0.001172
-0.074829 0.003393 -0.001588
0.070303 0.006187 0.001752
-0.069049 0.013545 0.006910
-0.026224 0.005073 0.007405
0.022730 0.002315 0.000891
-0.041599 0.014754 0.000103
-0.030387 0.003542 -0.002368
-0.057361 -0.000417 -0.007080
0.024384 -0.012179 -0.004117
-0.058012 0.014362 -0.004931
0.034888 0.002983 0.005883
-0.003703 -0.010727 0.006430
0.049231 -0.006035 0.008033
0.003936 -0.019355 -0.006531
-0.086487 -0.002767 0.003409
-0.035251 -0.014930 0.006475
-0.089754 -0.014612 0.008267
0.072625 -0.019431 0.006552
-0.022098 -0.013690 0.002786
-0.067506 0.017071 -0.002028
0.036720 -0.010769 -0.008699
0.067786 0.019750 -0.000947
-0.015503 0.012816 0.008892
-0.018697 0.006067 -0.006065
-0.045623 0.015531 -0.003424
-0.061061 0.002283 -0.006323
0.022839 0.005803 0.002975
0.034694 0.012548 0.007783
0.017989 0.011737 -0.003420
0.024096 -0.006511 -0.000296
-0.059702 -0.008541 0.003942
-0.059158 -0.015085 -0.003631
0.002613 0.007989 0.003176
0.042776 0.001540 0.000915
0.051868 -0.008016 0.004616
0.081273 -0.016602 -0.005988
-0.061924 0.007833 0.001598
-0.027978 0.004929 -0.001608
-0.011561 -0.018431 0.002449
-0.034794 -0.002433 0.009568
0.059357 0.010171 0.002864
0.075455 -0.003554 0.006872
-0.012646 -0.015108 -0.005844
-0.017393 0.018819 -0.009242
-0.066624 -0.012488 -0.002672
0.009939 -0.011988 -0.007092
-0.032755 -0.006991 0.002964
0.061367 0.019284 0.006154
-0.062457 -0.008140 -0.001097
-0.059430 -0.001946 0.002526
0.047846 0.009887 0.009959
0.046084 0.010528 0.009706
0.037404 -0.009015 -0.003677
0.059810 -0.005852 0.007638
-0.057659 -0.014507 0.006898
-0.005455 0.010980 -0.004961
0.041721 -0.001538 -0.001705
0.075359 0.019903 -0.002621
-0.084232 0.010384 -0.003425
0.068226 -0.012737 -0.004261
0.056264 0.013423 -0.009361
0.018426 -0.008361 -0.005782
0.008978 -0.004972 0.006252
-0.073766 -0.010682 -0.000926
-0.077778 0.014204 0.006274
-0.072472 -0.008136 -0.008809
-0.072567 0.018104 0.004085
0.031938 0.006389 -0.007306
-0.026523 -0.017723 -0.008194
-0.065639 0.007321 -0.008238
0.028569 -0.001411 0.004088
-0.001249 0.015296 -0.007127
-0.019169 0.017437 0.006500
0.079080 -0.018725 -0.004270
0.008368 -0.001077 0.001549
0.028136 -0.004380 0.000217
0.087105 -0.016319 -0.004840
-0.036554 0.014125 0.006257
-0.005389 -0.008567 0.009194
0.066378 -0.005199 0.003296
-0.079414 -0.011150 0.000713
0.041012 -0.019571 -0.005513
0.009733 0.004610 0.004670
-0.060202 -0.000082 -0.008084
0.069650 -0.017136 -0.001325
0.013928 0.019862 0.005319
0.052062 -0.015942 0.004623
0.083321 -0.001760 0.006835
0.018268 0.005290 -0.001920
0.006596 0.006421 -0.006420
-0.009786 -0.017093 -0.008274
-0.031547 0.006911 0.008131
-0.062902 -0.000292 -0.003371
-0.055123 0.006568 -0.000349
0.053671 -0.010984 -0.005516
-0.003175 -0.016425 0.006237
0.008617 0.015470 0.008121
-0.052208 0.012261 -0.005376
-0.043448 0.018531 0.005382
0.051003 0.010179 0.005792
0.018144 -0.009685 -0.002168
0.018265 0.017886 0.006282
0.018088 -0.017855 0.006987
0.063342 0.008183 -0.006257
0.073596 0.009232 -0.003587
0.013365 0.000655 0.005177
0.080879 -0.018517 0.002431
-0.023724 0.007723 0.009853
0.044179 0.015503 0.008992
0.038708 0.014264 0.003388
0.065580 0.002105 0.006911
0.074993 0.001669 0.001618
-0.044622 -0.000076 -0.001165
-0.038764 -0.017048 -0.007161
-0.055954 0.006100 -0.001599
0.009580 0.010002 0.001366
0.026968 -0.012776 -0.009726
-0.023507 -0.016599 0.009264
0.052050 -0.014800 0.009881
0.068608 0.009470 0.008268
0.058849 -0.017235 -0.002471
0.023037 0.005155 -0.000940
0.013153 0.011468 -0.005937
-0.030230 -0.005376 0.001371
0.067286 -0.014910 0.007870
0.015725 0.011387 0.009913
0.016066 0.011412 -0.006777
0.075653 0.008399 -0.007783
-0.042879 -0.000225 -0.001086
-0.044656 0.019936 0.006034
-0.011879 0.013765 0.008315
0.019516 0.005792 0.007199
0.006085 0.008089 -0.007822
-0.054735 -0.000409 0.008798
0.007832 -0.015289 0.009970
-0.048101 0.017026 -0.002214
-0.021174 -0.005113 -0.007082
0.020097 0.001239 0.009497
-0.065500 0.015214 -0.000562
0.022054 -0.000804 0.009777
0.013369 -0.014273 0.007478
0.074301 -0.004185 -0.002042
0.043116 0.006720 0.000372
0.023130 0.012730 0.004156
0.036569 -0.004364 0.006184
0.069206 -0.013190 -0.000380
0.003113 -0.017399 -0.008245
0.031714 -0.001604 -0.008205
0.064542 0.003668 -0.007508
-0.038751 0.012877 0.007740
0.029846 0.019486 0.008483
-0.010615 0.010321 -0.007893
-0.052791 -0.002212 -0.009891
-0.055766 -0.007484 -0.006502
0.086577 -0.005934 0.006250
0.037294 -0.007168 0.000242
-0.003043 0.003314 -0.008915
0.023014 -0.012821 0.007301
-0.079955 -0.010532 0.001424
0.086964 -0.017898 -0.006378
-0.053112 -0.009559 0.004716
0.030055 0.018813 0.001680
0.000340 0.008218 0.004390
0.083698 -0.004428 -0.006956
0.036066 -0.013367 -0.006877
0.020473 -0.008614 -0.000640
0.084072 0.015213 0.006713
-0.076054 0.018140 0.006024
0.053113 0.011483 -0.005441
-0.071506 0.006285 0.002789
-0.006104 -0.003642 0.008596
-0.018015 -0.017419 -0.006018
0.014005 -0.015140 0.000737
-0.035798 -0.007915 0.003936
0.062855 0.002846 -0.008603
0.077701 0.012586 0.005887
0.039269 0.011545 0.002277
-0.040380 -0.002929 0.002993
-0.070798 -0.004348 -0.001273
-0.055533 -0.013812 0.006745
-0.085325 -0.008914 -0.003164
-0.056932 0.015194 0.001317
0.068863 0.004712 0.006419
0.086608 -0.005559 0.002305
0.060272 -0.015878 -0.002274
0.072531 -0.019709 -0.001215
0.027772 -0.003367 -0.005948
-0.041424 0.007528 0.000229
0.033836 0.013666 -0.001651
-0.075293 -0.009001 -0.001985
0.038184 -0.017181 -0.000405
0.008842 0.014061 0.007097
0.016548 0.008917 0.007467
0.076371 -0.002362 -0.007272
0.038644 0.007140 0.007730
0.024883 0.019562 0.008074
-0.037841 0.015594 0.003425
-0.002056 -0.004320 -0.003525
-0.025756 -0.009497 0.001663
-0.014829 0.015856 0.005719
0.085404 0.002350 0.001003
-0.073060 -0.007433 -0.009408
0.027705 -0.019064 0.001683
-0.016052 0.013159 -0.005638
0.081485 -0.006412 -0.005728
0.072294 -0.006005 0.004757
0.030253 0.006114 -0.008693
-0.056760 -0.005892 0.007708
-0.061543 0.017563 -0.002728
-0.042360 -0.005466 0.002637
-0.070897 -0.007153 -0.003447
-0.052761 -0.006075 0.005654
-0.023683 0.007842 -0.006015
0.052035 -0.012154 0.004394
0.035881 -0.014507 0.000272
0.064528 0.003369 -0.005794
0.027797 -0.006023 0.009277
-0.054731 -0.006352 0.003998
-0.059264 -0.014814 -0.007579
-0.044147 0.015166 -0.005857
0.001080 -0.002377 -0.006955
-0.079259 0.015336 -0.009939
0.028265 0.015051 -0.003251
-0.041127 0.003538 0.003375
0.050887 0.007983 0.000762
-0.063797 -0.006895 -0.001588
-0.060806 -0.008613 -0.000878
-0.014075 0.015530 0.002270
0.042591 0.014387 0.006908
-0.089332 0.009639 -0.009570
0.038879 0.010825 0.001984
-0.005748 -0.016959 -0.009678
-0.074991 0.017126 -0.006155
0.035051 -0.017103 -0.002371
-0.013540 -0.007100 0.000598
-0.077635 0.001320 0.005891
-0.076699 -0.017853 0.001713
0.021448 -0.010205 -0.000289
-0.043691 -0.010936 0.008875
-0.040743 0.005854 -0.007682
0.037659 0.015774 -0.000134
-0.047264 0.014386 0.006005
-0.069619 0.003521 0.002239
-0.014792 0.016735 0.001696
-0.007000 -0.002531 0.009300
-0.057228 0.006184 0.002579
0.062723 -0.001137 -0.004839
-0.019454 0.014614 0.000293
0.059414 0.013647 -0.002801
-0.047570 -0.002537 0.006831
0.010977 0.011569 0.003242
-0.063270 -0.015897 0.007255
-0.080880 0.010113 -0.003786
-0.059666 0.002611 -0.008082
0.049248 -0.003248 -0.003848
0.069976 0.018236 -0.000158
0.065748 0.012566 0.003926
-0.065391 0.014527 0.001547
-0.029455 -0.013537 0.000327
0.061631 -0.012993 0.000307
0.053735 0.013550 -0.009991
0.029296 0.009668 -0.003806
-0.077970 -0.012377 0.004620
0.065456 -0.014098 0.000313
0.034054 0.015835 -0.000681
-0.023333 0.009703 -0.007785
-0.046003 0.006944 0.006495
0.088297 0.002443 -0.003077
-0.083854 0.009015 0.005275
-0.024161 0.009318 -0.006323
-0.017429 0.019556 0.003231
0.069764 0.018331 0.005841
0.033644 -0.009818 0.002863
-0.089672 -0.011796 -0.002201
0.058676 0.019085 0.008513
0.021293 0.001936 -0.008681
0.027248 0.011392 0.007822
0.076642 -0.001733 0.009362
0.021839 0.019616 -0.009945
-0.036399 0.016058 -0.008307
0.006066 -0.007360 -0.002160
-0.054172 -0.016278 0.001555
-0.066350 0.013320 -0.002115
0.065752 -0.005683 0.000239
-0.005493 -0.003929 -0.006973
0.002512 -0.010990 -0.003309
0.077346 0.013245 -0.001212
0.056392 -0.018315 0.008837
0.082237 0.011421 -0.003331
0.003155 -0.018534 0.004808
0.042672 0.000161 -0.006061
-0.027293 -0.018630 -0.000558
-0.026737 -0.001103 -0.003011
-0.017678 0.019367 -0.002032
-0.029839 0.008383 0.002999
-0.010553 0.001619 0.009392
0.019954 -0.005089 -0.002371
-0.021954 0.001069 -0.000980
0.022812 0.019802 -0.008098
0.036169 0.012854 -0.004645
0.076244 -0.003891 0.001239
0.036255 0.013161 0.002506
0.000888 0.013858 -0.000514
0.023591 -0.018287 -0.000690
-0.083915 0.014841 0.005812
0.089326 0.006523 -0.009501
-0.082468 -0.010238 0.009546
-0.000283 0.016326 -0.000158
0.048752 -0.006245 0.007661
-0.084819 0.016589 0.001673
0.022100 0.008476 0.009171
-0.082220 0.000693 -0.009003
0.017005 -0.012870 0.003252
0.063975 0.016110 0.000712
0.009686 -0.004903 -0.009966
-0.083871 0.006478 0.003979
0.024527 -0.013772 -0.003030
-0.020889 -0.009959 -0.000119
0.039215 0.007060 -0.007535
0.028503 0.009078 -0.004347
-0.064987 -0.000054 0.005996
0.008255 0.002958 0.006112
-0.046853 0.019446 -0.002131
0.003172 0.002727 -0.003529
0.006450 0.003939 -0.004749
-0.060661 -0.000099 -0.002178
0.038923 -0.006948 -0.005882
0.004114 0.006351 0.008842
0.019337 0.006527 0.006000
0.046168 0.017930 0.005919
-0.023472 -0.000770 0.009410
-0.057058 0.012622 0.005256
0.078395 -0.012150 -0.002095
-0.041395 0.017140 0.002885
-0.032579 0.009361 -0.004645
0.075014 0.018731 -0.001842
0.030570 0.002946 0.009452
-0.005309 0.000200 -0.005327
-0.013365 -0.003167 -0.004682
0.000845 0.016965 0.008388
-0.017269 -0.005202 -0.003072
-0.000877 -0.014162 0.005834
-0.076233 -0.007398 0.002644
0.082355 -0.004419 -0.002064
-0.028361 -0.010302 -0.009158
0.068313 0.010098 0.000717
-0.012863 0.011652 -0.002871
0.044932 0.009220 -0.001872
0.075823 -0.006728 -0.004949
0.032174 0.006740 0.004960
0.029579 0.009589 -0.009488
0.026123 -0.003428 0.002344
-0.002413 0.015655 0.002311
0.030011 -0.019204 -0.009213
-0.031485 0.009128 -0.001745
0.087110 0.018299 0.004233
-0.076894 -0.016265 0.005226
0.008859 0.010760 0.009121
-0.025269 -0.008643 -0.000726
-0.075204 0.001999 0.006123
0.077539 0.019509 0.003943
-0.018286 -0.018555 0.006318
-0.036966 -0.017719 0.008120
0.037772 0.007714 0.007321
0.002278 -0.000899 0.007380
0.088622 0.002048 0.002425
0.056526 0.014300 -0.001444
-0.066743 0.016029 0.004001
-0.007780 -0.002888 0.004335
-0.017512 -0.007969 0.007336
-0.002606 0.012489 -0.003717
0.049424 -0.012944 0.001152
-0.054143 -0.010240 -0.005818
0.018998 -0.000960 -0.007300
-0.082479 -0.012384 0.001013
-0.063391 -0.003770 0.002190
-0.014991 0.009153 -0.009977
-0.004905 0.011498 0.009242
0.011450 0.003807 0.006622
-0.080608 -0.008991 -0.008812
-0.001254 0.004119 0.009089
0.073972 -0.000508 -0.001810
0.088352 -0.006885 0.006204
0.010017 0.008454 0.002677
0.034551 -0.016768 -0.001645
0.050427 -0.009816 0.005078
0.020595 -0.013699 -0.006316
-0.070174 -0.009998 -0.003210
0.013463 0.002459 0.008237
-0.042859 0.003924 0.006782
0.027681 0.008763 0.006481
-0.032712 -0.009564 0.008737
0.019839 -0.013743 0.005386
-0.003081 -0.012172 0.003928
0.039965 0.017244 0.000656
-0.058234 -0.013953 0.006711
0.081557 0.005589 -0.009285
0.031773 0.018047 -0.001079
-0.032443 0.007051 -0.004303
0.010587 0.001230 -0.003489
0.044491 -0.001637 0.001246
0.084819 0.014753 0.004119
-0.038858 0.005103 0.004060
0.029474 0.013819 -0.005496
0.050813 0.006798 0.002502
-0.024518 0.018271 -0.008844
0.016362 0.006929 0.008525
0.037485 0.017689 0.005626
-0.027913 -0.000316 -0.008560
-0.024405 -0.002370 -0.008663
-0.028979 -0.017620 -0.001670
-0.036745 -0.004777 -0.001688
0.073348 -0.008179 -0.006030
0.051179 -0.003466 -0.000365
0.046874 -0.014330 0.007090
0.075041 0.017388 0.009370
0.071913 -0.005103 0.006739
-0.026582 0.000479 0.007908
0.022752 0.016121 0.000871
0.087431 0.002288 -0.008831
-0.087793 -0.015809 -0.000211
-0.022277 0.006738 -0.004787
-0.066758 -0.016534 -0.002415
0.075316 -0.003316 0.006788
0.083553 0.002861 -0.006876
-0.082071 -0.019891 0.002729
0.044568 0.008834 0.003759
-0.016463 -0.009255 -0.003631
-0.084805 0.009606 -0.000771
0.071505 0.014750 -0.002016
0.067751 0.003022 0.006167
0.037076 -0.004313 0.006287
-0.085756 -0.019296 0.002351
0.079408 -0.002566 -0.001380
0.004337 -0.017467 0.006491
-0.055986 -0.006053 -0.001199
0.081639 0.011084 0.008505
0.002828 0.001996 -0.002117
0.044507 -0.007577 0.008115
-0.054631 -0.007221 -0.005374
0.068043 -0.014095 0.001663
0.071505 -0.009000 -0.002256
-0.017032 -0.014626 -0.002404
-0.033477 -0.004362 -0.003827
-0.074059 -0.009912 0.001393
0.071847 0.003536 0.008833
0.044782 0.018895 0.000357
-0.051489 -0.004586 0.003685
0.068906 0.008639 0.009329
0.003891 -0.005373 0.006706
0.073763 -0.008334 -0.001907
-0.087241 -0.003577 -0.009843
-0.029076 0.008322 0.003744
0.048010 -0.005004 0.009763
0.075567 0.019073 0.008307
-0.061989 -0.012643 -0.004571
-0.006787 -0.011219 -0.003156
0.019701 -0.001708 -0.006835
-0.054527 0.014108 -0.008241
-0.068636 -0.008404 -0.008546
0.035490 0.006982 -0.001944
-0.085469 -0.017858 -0.002705
-0.044920 0.019990 0.002137
-0.034855 -0.001784 -0.003297
0.047268 -0.017133 -0.004209
0.003062 -0.007896 -0.003487
-0.012722 -0.011364 -0.000310
-0.039195 -0.006832 -0.005953
0.027076 0.010573 -0.008420
-0.052187 0.004576 0.003851
0.067658 -0.016821 -0.004128
-0.052809 -0.007415 0.001489
-0.036947 -0.017100 0.002166
0.049793 -0.013566 -0.008205
-0.013725 0.007854 -0.005826
-0.057919 0.001637 -0.001395
0.063205 -0.014500 0.006374
-0.001348 -0.001279 -0.006514
0.071177 -0.000238 -0.008544
-0.081499 -0.002073 0.001078
-0.015167 0.010165 0.005114
0.060956 -0.012227 -0.006335
0.015520 0.017085 -0.009250
-0.074706 0.001227 -0.008695
-0.039516 -0.012253 -0.006980
-0.013647 0.001486 0.002954
-0.037044 -0.000993 -0.003648
0.065867 0.004097 0.003126
0.084350 -0.001081 0.004724
-0.014071 0.007939 0.007461
0.041344 0.009516 -0.002364
0.016416 -0.000515 0.008035
0.021248 0.003015 -0.003480
0.025797 -0.012427 -0.003034
-0.060730 -0.003284 0.005048
-0.089441 0.013611 -0.001160
-0.069108 -0.003656 0.009467
-0.014046 -0.005057 0.007733
0.004912 0.004422 -0.007480
-0.064150 0.019219 0.008824
-0.089345 -0.003153 0.009233
0.048211 0.016669 0.004435
-0.038953 0.015112 0.005057
-0.077645 -0.018789 -0.008684
0.001870 0.014021 -0.004379
0.038393 -0.010500 0.008082
0.005077 -0.007590 -0.002704
0.086389 -0.019054 -0.006560
0.061604 0.001614 -0.002093
-0.047347 0.006047 -0.008427
-0.050961 0.019550 -0.005813
-0.009860 0.007686 -0.008595
0.032159 0.005673 -0.000141
-0.035737 0.011195 -0.006156
0.082379 0.003487 0.009619
0.051508 0.010169 -0.001318
-0.028655 0.011030 0.006170
-0.006388 0.007725 0.004388
0.068520 0.016235 -0.008933
-0.039969 -0.013920 0.009109
-0.025044 -0.014640 -0.004347
0.030206 -0.002372 -0.001375
-0.039013 -0.006042 0.007623
-0.022443 -0.018247 0.000088
-0.011314 0.000503 -0.003801
-0.022267 0.018585 -0.002423
0.033259 0.005535 0.006457
0.078353 -0.008778 -0.003845
0.023220 -0.003167 -0.007590
-0.054091 -0.006075 -0.000498
0.052331 0.003865 0.008519
0.008909 0.017456 -0.006599
0.057330 -0.010026 0.001118
-0.086657 -0.001978 -0.009158
-0.087396 -0.000314 -0.008202
-0.019332 0.012097 -0.001111
-0.006222 0.012202 0.001438
-0.086338 -0.017210 -0.007166
-0.029700 -0.007626 0.006874
-0.086836 0.019247 -0.000685
0.034703 -0.016276 -0.006069
-0.032523 -0.008605 -0.008498
-0.082634 0.009974 0.000443
-0.079684 -0.014577 -0.008627
-0.003940 -0.019902 0.009916
-0.027179 0.017243 0.006382
0.018667 0.004437 0.003336
-0.045043 -0.004538 0.005029
-0.050427 -0.007308 0.000493
0.072035 0.010779 -0.006686
0.046629 -0.003263 0.001781
0.080591 -0.012132 0.009063
-0.037444 0.012106 -0.004234
-0.066992 0.015121 0.008062
0.011475 -0.018706 -0.006472
-0.024748 0.019814 -0.001763
0.031265 -0.013694 -0.003714
0.024791 0.009431 -0.003874
-0.055225 0.016127 -0.008869
-0.075867 0.009801 -0.003756
0.068124 -0.012324 -0.002568
0.033692 -0.015273 -0.002486
-0.043704 0.007967 -0.001707
0.018803 -0.000846 -0.007590
0.032111 -0.002700 0.006339
-0.011126 0.015252 -0.007243
-0.071668 0.001156 -0.007253
-0.057303 -0.018671 -0.009148
0.050257 0.015242 0.006208
-0.022111 -0.015170 0.009644
0.066122 -0.002544 0.001545
0.020186 -0.018910 -0.007229
-0.013863 -0.000343 0.001008
0.050639 0.008839 0.006437
-0.024743 -0.019401 0.009183
-0.058257 0.013801 0.004499
-0.009677 0.009690 -0.004813
-0.078892 -0.004127 0.009652
-0.069961 0.018340 -0.006629
-0.044391 0.001881 -0.003985
-0.001091 0.014699 -0.008351
0.048371 0.003949 -0.004912
0.033796 -0.009583 0.005200
0.070713 -0.019569 0.001696
-0.038495 0.016838 0.006150
0.016738 0.013479 0.004423
-0.038811 0.000973 0.004505
-0.075243 0.002247 0.004088
-0.063051 0.011801 -0.009812
-0.036860 0.006344 0.002382
0.048209 0.001462 -0.008792
0.058922 0.005010 -0.002410
0.005694 -0.013440 -0.002484
0.070354 0.017562 0.005044
0.055951 0.001634 0.009975
-0.033374 -0.019769 -0.008024
-0.049864 -0.014002 -0.007113
-0.053537 -0.006560 0.005167
0.012166 -0.016154 0.007375
0.085977 -0.016125 0.002232
0.070713 0.013109 0.007659
0.074843 0.019846 -0.007019
0.073939 0.012449 0.002979
0.083790 -0.009996 0.000146
0.078560 0.001568 -0.000233
-0.000412 0.017115 -0.008495
-0.017151 0.013935 -0.005357
0.076209 0.017461 -0.008481
-0.078413 -0.006030 0.006056
-0.053979 -0.007496 -0.004654
-0.049710 0.005229 0.005948
-0.045456 -0.004654 -0.004537
-0.047477 -0.000374 0.001881
-0.028128 -0.018767 0.002823
0.059415 -0.003121 0.006535
0.001608 -0.013017 -0.009127
-0.001834 0.011932 0.009370
0.023960 -0.000413 0.004029
-0.014942 0.017244 -0.000530
-0.069430 -0.006637 0.007566
0.019019 0.012764 0.006622
-0.050569 -0.006677 0.002562
0.052137 -0.018215 0.009762
-0.082992 -0.011105 -0.005720
-0.057885 0.003364 -0.006741
-0.030557 -0.007325 0.008757
0.079338 -0.019788 0.001889
0.000328 -0.007170 -0.009923
-0.063749 0.013963 0.003574
0.022935 0.016157 -0.006233
-0.054223 -0.013896 0.001031
0.042307 0.014682 0.005142
0.055622 -0.012752 -0.009990
-0.083352 -0.017751 0.007019
-0.050885 0.019368 0.009089
0.022467 0.013013 0.007913
-0.034545 -0.015266 0.001083
-0.021662 0.018043 0.006961
0.068355 -0.002852 -0.008510
-0.000954 0.013911 -0.007094
0.079980 -0.019991 0.005832
-0.042583 -0.011386 0.000463
-0.048419 0.002301 -0.000476
-0.030227 -0.008558 0.000352
0.065882 0.008950 -0.007926
0.009233 0.013506 -0.007592
0.038897 0.018300 0.009734
0.088379 -0.001517 -0.001703
-0.047296 0.000543 -0.000931
0.010682 -0.001895 -0.001643
-0.077339 -0.001947 -0.007720
-0.038988 0.018587 -0.002444
0.083140 -0.002185 0.007986
0.087608 -0.007281 -0.002217
-0.047754 -0.017350 0.006848
0.047538 0.008053 -0.004494
-0.080983 0.017499 0.007464
0.003513 0.005891 0.001074
-0.075302 0.016194 -0.002112
-0.029881 0.015681 -0.004955
0.020006 -0.016928 -0.003283
-0.024769 -0.012692 -0.005916
-0.017941 -0.014586 0.002500
0.077473 -0.012698 0.004276
-0.042578 0.013716 0.003765
-0.066792 -0.016269 0.006789
-0.073298 -0.006486 0.004507
0.027138 -0.013663 -0.009454
0.027795 0.016718 -0.005521
-0.076754 -0.019313 0.008388
-0.075619 0.018053 0.001080
-0.018563 0.019157 0.008784
-0.034901 -0.006708 0.006519
0.042085 0.019371 -0.008285
-0.048465 0.015366 -0.001221
-0.059482 0.003104 -0.008725
-0.056770 -0.014405 -0.009218
-0.044187 -0.005450 0.008868
0.065096 -0.008081 -0.005605
-0.009203 -0.012769 -0.002719
-0.065578 0.012318 -0.004838
-0.065063 0.009776 0.005272
0.088259 0.007041 -0.005524
-0.073803 0.001780 -0.002235
-0.003051 0.011265 0.000503
-0.055881 -0.011382 0.004792
-0.034438 0.004426 0.003548
-0.037824 -0.017585 -0.000063
-0.049954 0.014362 -0.005592
-0.086266 0.015111 -0.000861
0.048408 -0.008188 0.003335
-0.068492 -0.003691 -0.007566
0.077241 0.002959 0.005737
-0.028765 -0.010141 0.003332
-0.043169 0.000308 -0.003941
0.047377 -0.016940 0.000822
0.064508 -0.016073 -0.000131
0.043599 -0.001082 -0.004102
0.082078 0.018523 -0.004904
-0.057182 0.012031 -0.007913
-0.069469 0.007510 -0.006667
0.077924 0.013884 0.005800
-0.013655 0.002956 -0.003098
-0.054866 0.002636 -0.000789
-0.016930 0.004350 -0.000163
-0.078292 0.009428 -0.005561
-0.020174 -0.009022 0.008691
0.050193 -0.018774 0.005926
-0.089391 -0.002801 -0.005406
0.075489 0.004581 0.009994
0.050697 0.017572 -0.005854
-0.069664 -0.009623 0.003228
-0.019513 -0.011120 -0.002617
0.064596 0.005772 0.005004
0.050176 -0.010609 0.004448
0.055332 0.002419 -0.003218
-0.031710 0.017999 -0.005345
0.046442 -0.007317 0.009810
-0.004232 -0.003162 0.005440
-0.055261 0.006557 -0.001301
-0.002119 -0.015505 0.001123
-0.076121 -0.002218 0.003196
0.053127 -0.003460 0.008802
0.045845 0.004359 0.001587
0.001208 -0.014812 0.008894
0.026514 0.003302 -0.008678
-0.012002 -0.013604 -0.001217
0.016763 -0.012830 0.000057
0.002867 0.011230 -0.002753
0.074749 -0.013541 0.003538
-0.004043 -0.015263 -0.003949
-0.035713 -0.014291 -0.008518
0.008472 -0.012884 0.002369
0.064806 0.014531 -0.001231
0.021098 -0.017414 -0.000937
0.081368 0.011551 -0.004019
0.028425 0.011945 -0.004371
0.084924 -0.015926 0.004558
-0.057436 -0.002787 0.001815
0.013515 -0.002333 0.006767
-0.052982 0.019395 0.008901
0.057193 -0.009019 -0.007747
0.054692 0.018097 -0.005568
0.005548 0.018779 -0.009384
0.006089 -0.013361 0.009783
0.031449 -0.012746 0.002983
-0.008814 0.017094 0.008902
0.031934 0.013414 0.002940
0.001128 -0.005322 -0.003378
0.009860 -0.016038 -0.003031
0.025794 0.005057 -0.009237
-0.016180 -0.010782 -0.004603
0.069974 0.019666 0.002267
-0.056121 0.004180 0.006800
-0.025660 -0.019590 -0.002124
0.005927 0.016388 -0.005748
0.050803 0.015472 -0.007604
-0.017372 -0.010461 0.003422
-0.014571 0.010098 -0.004207
0.026203 -0.000305 0.001388
-0.036548 0.004583 0.009354
0.036768 0.009644 0.005204
0.014919 0.016212 0.002807
0.080205 -0.001202 -0.005423
0.031079 0.009409 0.000819
-0.053153 0.017811 0.005655
-0.025510 0.014606 -0.008546
0.016899 -0.009172 -0.004977
0.067447 0.003728 0.004170
0.046815 0.014498 0.007739
0.084685 0.007916 0.002543
-0.046122 -0.007654 -0.003046
0.048125 0.009486 -0.005099
0.012816 -0.008355 0.003447
0.050020 0.005878 -0.009760
-0.014056 -0.016886 -0.000617
0.085557 0.011672 0.007995
0.036999 0.000116 0.001302
0.051685 0.002086 -0.002180
0.058980 0.005655 -0.004850
-0.009978 -0.000624 -0.000111
0.087685 0.016142 -0.000880
-0.082916 0.019992 -0.006846
-0.054339 0.019017 -0.004695
-0.047588 -0.005665 -0.004259
0.020163 -0.014520 -0.005108
-0.017257 -0.015731 0.002713
0.088867 -0.007334 -0.000998
0.002579 0.007839 0.004916
0.026809 -0.011688 0.002663
-0.010586 0.017685 0.009115
0.023699 -0.018325 -0.009044
-0.031338 -0.008003 0.004059
0.038438 -0.001952 0.004596
-0.062449 0.002707 -0.002947
0.024460 -0.005285 -0.001082
0.088986 0.009516 -0.001941
-0.028933 -0.015637 -0.001890
0.022942 0.006177 0.000803
0.089112 -0.004444 -0.004384
0.084160 0.010665 -0.005131
-0.028136 0.004482 0.007738
-0.001911 -0.007040 -0.004678
-0.004306 -0.019675 -0.001460
0.065654 -0.011938 -0.001098
0.067587 -0.018123 -0.005078
-0.030424 -0.001581 0.002785
0.028813 -0.019489 0.000922
-0.060744 0.006249 0.009576
0.005775 -0.015377 0.008316
0.054073 0.017687 -0.001443
-0.068608 -0.014509 0.005982
-0.028501 0.003386 -0.009631
0.028434 0.003098 0.006145
-0.087258 -0.001451 -0.005036
-0.087211 0.013576 -0.002524
-0.059347 0.003345 0.009154
-0.044089 -0.017703 0.008863
0.042233 0.004196 -0.004877
-0.038230 0.004451 0.003598
0.018284 0.015030 -0.006285
-0.047739 -0.019528 -0.009646
-0.070993 0.007096 0.001627
-0.003601 0.008175 0.006585
-0.018507 0.006551 0.009997
-0.041150 0.008274 -0.000448
-0.062986 -0.012761 -0.005533
-0.033115 0.017732 0.000039
0.029032 0.014914 -0.003005
0.039499 0.018860 -0.004695
-0.061808 0.001216 0.008992
0.060957 -0.011429 -0.002709
0.014514 -0.009120 -0.007341
-0.080782 0.004880 -0.000202
0.060901 0.002631 0.009261
-0.034370 -0.003018 -0.004083
-0.044065 0.001025 0.002953
0.042563 0.001286 0.007377
-0.062548 0.008721 -0.001710
-0.058098 -0.016072 0.008539
0.006342 0.014494 0.003180
-0.052997 -0.009883 -0.008915
-0.035420 -0.002932 0.006427
-0.042871 0.010288 -0.000590
-0.007609 0.017063 0.007382
-0.062250 -0.009475 0.002709
0.057848 0.011143 0.004323
-0.060734 0.007591 0.000922
-0.059738 0.003599 0.001575
0.070782 0.019972 0.004795
0.076330 0.001790 -0.002918
-0.001744 0.000321 -0.009206
0.003522 0.008811 0.008214
-0.004835 -0.014820 0.005136
-0.074472 0.006204 0.009595
-0.000664 0.012377 -0.004285
-0.055352 -0.018790 0.003334
0.078892 0.018887 -0.007236
0.071377 -0.006961 -0.000101
0.004088 -0.017256 -0.008719
0.043522 -0.017975 -0.003989
0.044822 -0.011667 -0.006336
0.028896 0.017192 0.009039
-0.003272 0.005000 -0.003349
0.010755 0.008893 0.003411
0.072342 0.014422 -0.008398
0.069233 -0.019654 -0.003098
-0.049371 0.015528 -0.007933
-0.036376 -0.004397 0.004307
0.040577 -0.003316 0.002207
0.047150 0.012298 0.005000
0.074917 0.011418 -0.009104
-0.054615 -0.010619 0.009198
-0.001526 -0.000964 0.005272
-0.004941 -0.015494 0.008277
-0.066003 0.011688 0.002155
-0.043347 0.010861 -0.000602
0.035982 -0.002665 -0.001259
-0.062976 -0.004950 0.006599
0.050995 -0.014555 -0.003158
0.019872 0.019755 0.008047
-0.025665 -0.001599 0.009374
-0.016492 0.010823 0.007724
0.074062 -0.014384 -0.000672
0.077673 -0.018073 0.005961
-0.076322 0.006473 0.004229
0.002333 -0.011990 0.000409
0.000699 -0.009828 -0.003300
-0.065398 0.003419 -0.005769
-0.078325 -0.011233 0.003514
-0.026573 -0.004815 -0.001212
0.018469 -0.006848 -0.001965
0.070235 0.011227 0.000021
0.037199 -0.019285 -0.006464
-0.062774 -0.017377 0.007662
0.043007 -0.017529 -0.008702
-0.043411 0.000820 0.007377
0.051817 0.004844 -0.009736
0.041049 0.010659 -0.003507
0.009320 0.002580 -0.000098
-0.032903 -0.007653 -0.009895
0.084837 0.016448 -0.006577
0.049665 0.003288 -0.009026
0.063141 0.008336 -0.006437
0.059004 0.002822 -0.002202
-0.056299 -0.015837 -0.008240
-0.084827 0.002201 -0.004346
0.077868 -0.013045 -0.002427
0.012820 0.015164 -0.005487
0.075349 -0.016286 -0.007660
-0.044006 -0.010060 -0.000448
-0.030443 -0.014229 -0.005342
0.084223 0.015074 0.001866
-0.080917 -0.007360 0.007093
0.089802 0.014945 0.009440
0.000738 -0.007357 -0.002127
0.065661 -0.008217 0.006557
-0.078945 -0.008235 0.006636
0.039698 0.014939 0.004138
-0.003961 0.012163 0.002373
-0.089463 0.004324 0.009198
0.070384 0.013622 0.005787
-0.030506 0.001212 -0.008012
0.053309 -0.013325 0.004813
0.010089 0.018240 -0.008834
-0.085148 -0.014766 0.006720
-0.089192 0.006082 -0.008360
-0.011558 0.018223 -0.008435
0.055915 0.013241 -0.009389
-0.061404 0.001269 0.003030
0.025008 -0.006349 0.001496
0.028554 -0.013931 -0.008002
0.016235 -0.019275 -0.004316
-0.038816 0.016222 -0.007153
-0.081436 -0.018794 -0.009101
0.011684 -0.006847 -0.003699
-0.085643 -0.002419 -0.007376
-0.038943 -0.006826 -0.004510
-0.067319 -0.014461 0.006846
0.008688 -0.015083 0.008510
-0.079834 -0.019591 0.000988
-0.017967 -0.013835 0.005134
0.035779 0.009865 -0.003078
0.079419 -0.014742 -0.008528
-0.064946 -0.014384 -0.001835
0.076529 -0.015499 -0.003621
0.041653 -0.015637 0.000630
-0.049982 0.012833 0.005788
-0.036314 0.006994 0.000204
0.052010 0.000655 0.003008
0.018068 0.005231 0.000607
-0.059632 0.006514 0.002191
0.021185 -0.010566 -0.008236
0.031378 0.013352 -0.000248
-0.013574 0.005621 0.002786
-0.027902 -0.012648 -0.007020
-0.011231 0.004553 0.008311
0.035639 0.017012 0.001210
0.062539 0.015146 -0.002238
0.015578 -0.011730 -0.007028
0.042741 -0.017017 0.001703
0.043144 -0.011777 -0.005555
0.029340 -0.007391 -0.007445
-0.031295 -0.010492 0.008613
0.048373 -0.000164 -0.002550
-0.032032 0.012729 0.007359
0.023793 -0.011077 -0.009719
-0.077595 -0.001477 -0.009889
0.051337 -0.016083 -0.008542
-0.064097 0.001544 -0.004067
0.065718 0.018589 0.003396
-0.065427 -0.008580 0.006651
-0.059653 -0.001300 0.002756
-0.017309 -0.016187 0.007071
-0.071604 -0.008024 0.003153
0.055828 -0.010433 0.006546
-0.052289 0.006491 -0.001901
0.050551 0.015696 -0.004465
0.078281 0.009935 -0.008034
-0.034120 -0.004784 0.006654
0.033656 -0.008220 -0.002382
0.003992 -0.009444 -0.007331
0.058856 0.015230 0.004106
0.083358 0.013336 0.000397
-0.037485 0.019457 -0.009442
-0.086635 0.011301 -0.004009
-0.015484 -0.000493 -0.001365
0.047996 -0.012216 0.000093
-0.026734 -0.002170 -0.006591
0.008139 0.006915 0.007215
-0.032825 -0.008423 -0.008654
-0.068686 -0.019607 -0.006062
-0.032539 0.007646 0.005084
0.060984 -0.001266 0.000081
-0.019590 -0.005264 0.008517
0.023364 0.008305 -0.004183
0.061595 -0.001422 0.007298
-0.071787 -0.011105 -0.006111
-0.009443 -0.019129 -0.009887
-0.025895 -0.011866 -0.007925
0.063946 -0.018182 -0.009352
-0.077229 0.010505 0.000363
-0.077230 0.019038 0.008742
0.075619 -0.002319 -0.004357
0.061219 -0.016752 0.007978
0.012117 -0.012412 -0.000741
-0.009378 0.019955 0.005462
-0.010945 0.012762 -0.000411
-0.084137 -0.002107 0.006974
0.004064 -0.015548 -0.005197
-0.075516 0.005730 0.001126
-0.055822 0.004612 -0.008509
-0.041319 -0.009942 0.009372
-0.072621 -0.015987 0.000369
0.012103 -0.007490 -0.003150
0.079489 0.019902 -0.000255
0.075039 0.014921 -0.001073
0.064048 -0.000674 -0.003474
0.025001 -0.015292 -0.002478
0.016432 -0.000092 0.000729
-0.017985 0.015459 -0.001132
0.035712 0.006605 -0.006387
0.016617 0.014699 -0.008922
0.069336 0.007758 -0.000444
0.051514 -0.011231 0.007610
-0.021466 0.005235 -0.002370
-0.050072 0.014035 0.009450
0.030108 -0.000345 0.002389
0.062141 0.000708 -0.004713
0.049611 -0.016733 -0.008385
0.085185 0.005302 0.008225
-0.056124 0.014177 0.009652
-0.080259 0.019635 0.004286
0.043599 -0.016883 -0.003955
-0.067916 -0.014430 -0.004900
-0.069661 -0.004504 0.003590
-0.080974 0.009015 0.002900
0.014079 0.005944 0.007453
0.058018 -0.015444 0.009036
-0.073056 0.001575 -0.001689
-0.003292 -0.003192 -0.006093
0.037847 0.006092 0.007387
-0.066295 -0.011499 -0.005814
0.036526 -0.017723 0.008461
-0.054025 0.015317 0.007939
-0.039655 -0.006457 0.004832
-0.084761 0.017226 0.000559
-0.070122 -0.002557 0.004840
-0.045466 0.012831 0.002926
-0.000730 0.008357 0.004778
0.039366 -0.017996 -0.001224
-0.083041 -0.005819 -0.008725
-0.065657 -0.010116 0.005651
0.028191 -0.016606 -0.000015
-0.056923 0.001389 0.008300
-0.024461 -0.016745 0.001117
0.004351 -0.007581 -0.003603
0.044750 0.010120 -0.009529
-0.065283 0.009853 -0.009944
0.064283 -0.005190 0.000093
-0.082051 0.002216 -0.001329
0.074249 -0.006662 -0.008045
-0.057826 -0.007398 -0.001502
-0.080709 0.001988 -0.005023
-0.037455 -0.012170 -0.009869
-0.069221 -0.015879 0.000199
-0.023536 -0.000199 -0.001805
0.067540 0.010597 0.009578
0.077404 -0.019081 0.008454
-0.033468 0.013654 -0.000780
0.006097 0.007856 -0.009974
-0.077030 -0.003935 0.009457
0.058229 -0.017918 -0.009748
0.016572 0.011957 -0.006424
0.023234 -0.009877 -0.009239
0.015907 -0.010208 -0.001704
-0.018378 0.015908 -0.005834
0.022601 0.003490 0.007397
-0.002808 -0.004406 -0.008952
-0.041034 0.005342 0.006078
0.016126 -0.001283 0.004614
-0.077539 -0.010639 -0.007443
0.054739 -0.011236 -0.007146
0.026029 -0.001893 -0.000139
0.009333 -0.019358 0.004690
-0.009713 0.011929 0.001917
0.033736 0.014707 -0.000570
-0.060444 0.006601 0.002130
-0.006472 0.013662 -0.001445
0.079220 -0.007441 0.004037
-0.061194 -0.016709 0.007630
-0.036330 -0.007960 0.009073
0.083924 0.010043 -0.004795
-0.011648 -0.019784 -0.002135
-0.040244 0.013709 -0.001668
0.022575 -0.010562 0.008424
-0.030439 0.004254 -0.005980
-0.036604 0.018465 -0.001346
0.086948 -0.009276 0.007681
0.075934 -0.012047 -0.005202
-0.067681 -0.001709 0.006576
0.063689 0.009455 -0.007858
-0.073595 0.013291 0.007728
-0.000859 0.008172 0.000033
0.029360 0.000284 -0.006048
0.060411 0.003090 -0.000655
-0.036095 -0.005324 0.007628
0.065556 0.016819 -0.000281
-0.025292 -0.004300 -0.002458
-0.018866 -0.014662 0.008044
0.008702 -0.009975 0.009254
0.072042 0.000715 0.008505
-0.043776 -0.009982 -0.004772
0.056440 0.005983 -0.004617
-0.015590 -0.016522 0.001786
0.052932 0.000007 0.002366
0.002191 -0.018094 0.007808
0.013933 0.013950 -0.006279
0.073166 -0.006819 0.004449
0.080504 0.007587 -0.002369
0.005198 0.002888 -0.005417
0.088470 0.003051 0.006516
0.018909 -0.012606 -0.004254
-0.078228 -0.004532 -0.009179
-0.012681 -0.012486 -0.001903
0.030130 0.010748 -0.000664
-0.043416 0.012987 -0.004086
0.077338 0.003938 -0.001314
0.063908 -0.016123 -0.007326
-0.020524 0.001727 0.002270
-0.011244 -0.003572 0.006576
0.046573 0.000663 -0.008385
-0.001154 0.010695 -0.009726
0.054505 -0.005374 -0.002946
0.016997 0.005669 0.006213
-0.014993 -0.017608 0.004132
-0.088398 0.019357 -0.001816
-0.025398 0.005685 -0.004501
0.018758 -0.019697 0.001078
-0.024628 -0.014501 -0.002285
0.032990 -0.000001 0.006727
0.010848 0.004373 -0.001730
0.003026 0.019328 0.008941
-0.013202 -0.014748 -0.006670
-0.017910 0.009945 0.001251
0.021977 0.015842 -0.008309
0.078073 0.018056 0.000649
-0.011373 -0.014135 0.008866
0.043771 -0.000363 0.000618
-0.072083 -0.003922 -0.003684
0.088366 -0.015910 -0.001718
0.024429 -0.019049 -0.007517
-0.056614 0.004501 0.007725
-0.059624 -0.006013 -0.003671
-0.062873 -0.013220 0.004999
-0.059857 0.005438 -0.009059
0.022102 0.016111 0.001347
-0.011338 0.001213 -0.001960
0.086064 -0.017713 0.006389
0.011117 0.016821 0.009135
0.034686 0.006508 -0.002550
-0.071344 -0.019014 0.009736
0.003696 0.008974 0.009623
-0.013593 -0.006042 -0.004198
-0.006504 -0.010964 -0.005489
0.042037 0.016705 -0.000964
0.017910 0.010254 -0.004337
0.065739 -0.004059 0.001898
0.062577 -0.011666 0.002449
0.010568 -0.017146 -0.009670
0.054393 -0.016727 0.006910
0.065082 -0.001615 -0.004454
-0.025020 -0.001525 -0.000079
-0.022398 0.010832 0.003930
0.070938 0.012778 -0.002659
-0.049846 -0.007181 0.002165
0.085536 0.001785 -0.008792
0.033010 0.003072 -0.002315
0.049612 0.012190 0.009089
0.072346 0.017605 -0.002949
-0.033512 0.005929 0.005795
0.020975 -0.006785 0.006798
-0.051741 0.004460 0.008602
0.076627 0.010808 0.008497
-0.004264 -0.003896 0.001387
0.041583 -0.017177 0.004708
0.031773 0.010760 0.002365
-0.048462 0.002016 -0.007291
-0.019141 0.019784 -0.002719
0.069074 0.006040 0.003264
0.003371 0.011340 -0.003584
0.035531 0.012919 -0.002614
0.048227 -0.009526 -0.009065
-0.053520 -0.014179 0.000708
0.050455 0.014260 -0.005604
-0.003541 0.005648 0.006429
-0.013300 -0.016455 -0.008056
0.083475 -0.013622 -0.007176
0.085514 -0.015419 0.000190
-0.008837 0.008972 0.004339
-0.079667 -0.015363 0.004142
0.055105 0.006768 -0.003836
0.024030 0.007709 -0.005916
-0.089076 0.010036 -0.006237
0.057939 -0.004079 -0.000491
-0.076385 -0.019108 -0.004792
-0.076833 0.016386 0.009325
-0.081916 0.010153 0.002253
-0.037323 -0.004237 -0.003904
0.078937 -0.017204 -0.002733
-0.062897 -0.007603 0.004914
-0.013275 0.011958 -0.003208
-0.003473 -0.000240 -0.000858
-0.028773 -0.008088 0.005022
0.008096 0.012249 -0.002057
0.003981 0.007179 -0.007495
0.006424 -0.016329 -0.005591
-0.053503 0.013381 -0.007565
-0.011058 -0.014901 -0.009795
-0.000061 0.009135 0.003336
-0.042891 0.006800 0.004949
0.084285 0.007855 0.001355
0.086849 0.008214 -0.004052
0.082941 -0.007094 -0.003363
0.004921 -0.009918 0.000430
-0.025344 0.017631 0.005071
0.074063 -0.011907 0.003955
-0.066212 -0.000132 0.005201
0.036680 -0.012094 -0.006556
-0.000674 -0.016634 0.007186
-0.015854 -0.006871 -0.004595
-0.018005 0.009928 -0.004349
0.048746 0.011557 0.005863
0.060295 -0.007181 0.007885
-0.085136 0.017686 -0.000263
-0.089149 0.010347 -0.004670
-0.070764 -0.011492 -0.000120
-0.006683 0.003176 0.002180
-0.079801 -0.001196 0.008714
-0.023676 0.014503 0.004310
0.015220 -0.015139 0.008134
0.056596 -0.014428 -0.001773
0.066607 0.004819 0.006458
0.035250 -0.014761 -0.007198
0.076328 0.013166 0.000588
-0.024251 0.019326 -0.009230
0.034090 0.002833 -0.006934
-0.004422 0.000314 -0.001058
-0.081757 0.015045 -0.007334
0.037979 -0.012548 0.001143
-0.012596 0.006127 0.009922
-0.075909 0.018921 0.002369
-0.035113 0.007500 -0.002344
0.079773 0.012291 0.000427
-0.068493 -0.017057 -0.000989
0.039074 -0.008275 0.004950
-0.052733 -0.007839 0.001989
-0.052008 -0.013850 -0.002124
-0.040839 -0.008772 0.002017
0.080742 0.009806 -0.006158
0.065237 -0.006850 0.006894
-0.032531 0.001071 -0.008712
0.059839 -0.007374 -0.008209
-0.027557 0.007187 0.004656
-0.033437 -0.002181 -0.009740
0.068623 -0.014598 0.002661
0.082303 0.003025 -0.006009
-0.051525 0.001661 -0.009680
0.021926 -0.017320 -0.003133
-0.036682 0.007152 0.006196
0.041779 -0.015840 0.008099
0.086124 -0.003000 0.009035
-0.037028 -0.011315 -0.002210
0.035804 0.005702 0.004326
-0.009717 -0.002265 -0.009418
-0.045689 0.011976 -0.005765
-0.012961 0.014215 -0.009151
0.036827 0.011244 0.003830
0.046700 0.008183 -0.006583
0.042525 0.011306 0.001837
0.018133 0.007073 -0.003900
0.084572 -0.003073 -0.001908
0.073076 0.014965 0.006977
0.030576 -0.008544 -0.004337
-0.024715 -0.001039 0.002731
-0.074384 0.003712 0.005093
0.071611 0.009479 0.002833
0.050553 0.013379 -0.008010
-0.051543 -0.019115 0.006454
-0.035743 0.006077 -0.005523
-0.032380 -0.002832 0.005279
0.062758 0.016414 0.008392
0.009909 -0.010805 -0.008763
-0.024327 -0.005732 -0.003800
-0.062628 0.016440 0.000961
-0.029693 -0.006349 0.008085
-0.068769 -0.010655 -0.006092
0.080912 0.001731 -0.003457
0.039093 -0.007101 0.007981
0.025333 0.016754 0.004019
-0.060775 -0.015321 -0.008431
-0.044577 0.014201 -0.005027
0.071182 0.006104 -0.006461
-0.026183 0.018917 -0.004055
0.022222 -0.005088 -0.002888
0.014151 -0.009737 -0.006314
0.033224 -0.005491 -0.008472
-0.071791 -0.018670 -0.008004
-0.077347 0.016741 -0.001317
0.079654 -0.015406 -0.005548
-0.030274 0.009096 -0.005329
-0.040506 -0.005775 0.003854
-0.074551 0.004489 -0.006254
0.054758 -0.007994 0.007664
0.062455 0.011839 -0.001798
0.022618 0.016622 0.000430
0.046605 0.007690 -0.009622
-0.061137 -0.016751 0.008529
-0.051937 0.012214 -0.000998
-0.022533 -0.019714 0.001645
-0.083135 -0.000129 -0.001212
-0.082877 -0.003872 0.004835
-0.032042 0.016349 -0.007813
0.038607 -0.009819 0.007953
-0.041020 0.009277 -0.004545
0.045236 -0.010545 -0.009890
0.043258 -0.014806 0.000811
0.059631 0.012811 -0.003844
0.013254 -0.019644 0.006125
-0.077098 0.014289 0.002705
0.011886 -0.004550 -0.001790
0.040456 0.017853 0.004970
0.034136 -0.007581 0.003825
-0.084635 -0.005426 0.007690
-0.004666 -0.017413 -0.007063
0.018624 0.007757 0.005271
-0.048695 0.002810 0.001826
-0.021200 0.004069 0.006652
-0.049296 0.007185 0.008694
0.067713 0.011353 0.005257
-0.019025 -0.002540 -0.005140
-0.045925 -0.005441 0.008193
-0.063975 -0.012634 0.003585
0.078622 -0.008886 0.009121
-0.032482 0.001554 0.006714
0.078498 0.008489 -0.001106
-0.068215 -0.012903 -0.000225
0.036927 -0.003692 -0.004671
0.052213 -0.004309 -0.002262
0.020334 -0.012086 0.009039
0.047192 -0.012614 -0.001769
-0.058343 -0.014184 -0.007415
0.066167 -0.005151 -0.008004
-0.007590 0.014043 0.002061
-0.087463 0.007560 -0.003218
-0.030864 -0.012954 0.006034
0.000916 -0.001529 -0.006076
0.010505 0.009573 0.002980
0.066523 -0.013403 -0.008042
0.035242 -0.015953 0.008926
-0.088756 -0.003847 -0.002760
-0.033721 -0.005128 0.002370
0.077224 0.002820 0.009053
0.025341 -0.009227 0.005137
-0.076922 0.009191 -0.004179
-0.066590 0.010696 0.005827
0.072384 -0.006720 -0.006030
-0.039053 -0.002335 -0.002829
0.037530 0.008866 -0.001000
0.009419 -0.004558 -0.003132
-0.036664 -0.017872 -0.004920
0.069383 0.000932 -0.004785
-0.058918 -0.016263 -0.005388
0.044949 0.016937 0.005959
0.055908 -0.017969 -0.005883
-0.022975 0.009579 0.001847
-0.046586 -0.010352 -0.002759
0.040960 0.018525 0.008823
-0.062702 -0.014121 0.007286
0.020861 0.010240 -0.004490
0.067922 -0.018778 0.000059
0.016599 -0.009601 -0.009780
-0.063217 -0.019341 0.004520
-0.046920 0.004831 0.008459
-0.060966 -0.014649 0.009735
0.067640 -0.001225 0.008125
-0.062144 0.010763 -0.001460
-0.045738 -0.007667 -0.003741
0.077524 0.019261 0.000477
0.015912 -0.018662 0.008337
-0.008315 0.007418 0.000283
0.061818 -0.010378 0.004144
0.006708 -0.014737 0.009375
-0.015892 -0.001479 -0.004001
0.039031 0.004828 -0.002470
0.046625 0.012580 -0.005125
-0.003037 -0.010896 -0.002376
-0.089784 0.019441 0.007540
0.017726 -0.014099 0.009659
-0.041133 -0.011541 -0.007194
-0.008088 -0.000524 -0.007186
0.031475 0.017318 -0.005714
0.039426 -0.017231 -0.007459
0.062052 0.005369 -0.006620
-0.078087 -0.017428 -0.005372
0.070800 -0.007655 -0.009482
0.028171 0.002328 -0.005145
0.065673 -0.018342 -0.006233
-0.085692 0.008395 0.004344
0.055998 0.002814 0.009256
0.017304 -0.002190 -0.003567
0.048197 -0.000202 -0.005765
0.008334 0.009511 0.001565
-0.088701 0.001616 0.005278
0.028988 -0.005944 -0.000101
-0.045558 -0.010377 -0.006176
-0.006181 0.006227 0.005265
0.066127 0.004401 0.002590
0.050352 0.019169 0.007640
-0.001179 -0.014356 -0.009886
0.011946 -0.003992 0.009174
-0.035243 0.010307 0.008898
0.007452 -0.010464 -0.003380
-0.047519 0.013811 0.000109
-0.086490 -0.016646 -0.003567
-0.028614 0.001106 -0.003433
-0.027936 0.003199 -0.008640
0.082428 0.002291 -0.000126
-0.039788 0.004354 0.005285
0.075551 0.019051 0.000646
0.089491 -0.014129 -0.009980
0.078582 -0.011770 -0.007523
0.040951 -0.005389 -0.006911
-0.028965 -0.013325 0.007901
-0.000925 0.014485 0.004247
0.044471 0.014164 -0.007121
0.059260 -0.015545 0.002331
-0.016724 0.002945 -0.004140
0.072563 0.001139 -0.000283
0.001960 0.018268 -0.009351
-0.016968 -0.007646 -0.002024
-0.083557 0.017849 -0.007217
-0.018841 0.012654 -0.000102
0.006129 0.017319 0.006745
-0.012273 -0.005731 0.008083
0.046712 -0.004668 0.007870
-0.024253 0.019625 0.004873
0.020934 -0.007386 -0.006675
-0.021273 -0.007477 0.009530
-0.081875 -0.011099 0.007264
-0.068415 0.000023 -0.002304
0.056739 -0.012145 -0.006446
-0.061600 0.001766 -0.009516
0.073606 0.009557 0.004857
-0.026917 0.006245 0.003234
-0.004787 -0.004520 0.009165
0.033511 -0.013456 0.004374
-0.028683 -0.015613 -0.003702
0.071378 -0.004400 -0.009935
0.025511 0.005758 0.000518
0.010456 0.011566 -0.007201
0.024414 -0.019102 -0.005274
-0.078586 -0.012715 -0.004447
0.028618 0.011528 -0.002017
-0.002607 -0.009181 -0.002910
0.020952 -0.000758 -0.000194
-0.074388 0.015402 0.008468
-0.034669 -0.002130 0.007773
0.018254 -0.000770 0.005140
0.069453 -0.010205 0.001993
-0.055673 -0.004338 0.007528
-0.081171 -0.007009 -0.006781
-0.034667 0.015171 0.007762
0.064304 -0.017464 0.000982
-0.089733 -0.017749 -0.005580
-0.089188 -0.013030 0.004799
-0.083383 -0.009653 0.003787
0.082980 0.007992 -0.009751
0.005139 -0.000224 0.009304
-0.060485 0.000349 0.005466
0.042748 -0.001483 -0.007116
-0.074630 -0.007643 0.000345
0.066108 -0.019025 -0.007031
0.079768 -0.003763 0.004907
0.044031 -0.012578 -0.000688
0.062955 0.018650 0.008079
0.010382 0.014960 -0.009208
0.025161 -0.000323 0.006747
0.021005 0.005460 0.005973
0.051489 0.002464 0.004826
-0.012458 -0.008050 0.003968
0.067962 -0.019287 0.005911
-0.022260 0.000208 0.005910
-0.046571 0.012509 -0.009889
-0.057099 -0.014779 -0.003051
-0.021561 0.010830 -0.009747
0.007622 0.016710 0.008318
0.086541 0.001904 0.004835
0.020531 -0.013633 0.001696
0.005234 -0.009858 -0.008102
-0.038249 -0.013063 0.000498
-0.026606 -0.014846 0.004503
-0.022744 0.014718 0.006231
0.025116 0.014652 0.000477
0.052477 0.007736 -0.007715
0.052337 -0.012299 0.001904
0.033108 -0.015498 0.007125
0.018819 -0.000688 -0.006680
-0.020476 -0.010899 0.005955
-0.062424 -0.018546 -0.003321
-0.021032 -0.015750 0.006434
0.028229 0.000503 0.002443
-0.078654 -0.010246 0.006744
-0.087098 -0.010525 0.006721
0.022235 0.013536 0.004829
-0.055713 -0.009434 0.003588
0.064661 0.019826 0.007680
0.065488 -0.005204 0.006777
0.026579 0.018331 -0.007790
-0.025248 0.005557 -0.002482
-0.076427 0.006081 0.008348
-0.059866 -0.002337 0.007670
0.089680 -0.013360 -0.007708
0.087510 -0.008996 0.005679
-0.057734 -0.005377 0.002883
0.021718 0.005807 0.002613
0.024710 -0.008912 0.000500
0.030029 0.019450 0.008297
0.007859 0.000545 -0.003859
-0.007026 -0.007378 -0.009719
-0.075838 -0.002956 -0.003501
0.067243 -0.012282 -0.006752
-0.035954 0.001853 0.009271
-0.011913 -0.000886 0.000838
0.032316 0.006548 -0.000394
-0.005438 0.008041 -0.001659
0.076607 -0.000048 -0.009425
0.017308 0.008058 -0.002563
0.044904 0.019391 -0.003378
-0.025389 -0.005589 -0.001696
-0.065885 0.001834 -0.007284
-0.083509 -0.009926 -0.002954
-0.048197 0.014357 0.001177
-0.004971 -0.017116 -0.001948
-0.051553 0.000882 -0.004122
0.042679 -0.003656 -0.002121
0.043336 -0.007438 0.000691
-0.012902 -0.018818 -0.003498
0.066634 0.007959 -0.003456
-0.065617 -0.007714 -0.001747
0.014302 -0.013585 0.004933
-0.032030 -0.015897 -0.000567
