ply
format ascii 1.0
element vertex 1500
property float x
property float y
property float z
end_header
-0.020722 0.009143 -0.000448
-0.048829 -0.001214 0.001184
0.017782 -0.004305 0.006227
-0.069534 0.011188 0.002108
-0.053217 0.010390 -0.001868
0.072513 -0.014115 0.004811
-0.057368 0.010051 0.003877
0.062130 -0.001588 -0.003259
0.046773 -0.005253 0.002972
0.038626 -0.012643 -0.007094
-0.035963 -0.001972 0.005546
-0.030691 0.002751 -0.001599
0.038369 0.011301 -0.004296
-0.068133 -0.013820 0.001446
-0.060189 -0.000406 -0.002394
0.038257 -0.001346 -0.004004
-0.019644 -0.012622 0.004327
-0.033111 0.012633 0.006394
0.021488 0.011250 0.006919
-0.045749 0.014446 0.000861
0.003080 0.009405 -0.003378
0.019290 -0.007200 0.002531
0.038055 0.008170 0.002221
-0.044240 0.003031 -0.006486
-0.033743 -0.003007 0.002370
0.045989 -0.012700 -0.000268
-0.063994 0.014762 0.001555
0.048036 0.003933 -0.003881
0.017178 -0.003382 -0.002022
0.030143 0.006289 -0.006076
-0.066935 0.008626 -0.005685
0.013343 0.010722 -0.000989
0.063306 -0.002900 -0.004312
-0.040668 0.012842 -0.006336
-0.074748 0.010140 0.004690
0.008157 -0.011229 0.001922
-0.011204 0.011636 -0.005248
0.013610 0.003468 -0.001469
0.074205 -0.006490 0.004205
0.073189 0.005142 -0.007345
0.005430 -0.006201 0.000611
-0.052600 -0.005874 0.000875
0.008320 0.014480 -0.000098
-0.058400 -0.012649 -0.002605
-0.027345 0.012817 -0.003373
-0.052734 0.003432 0.002063
-0.072812 0.013536 -0.007460
0.022255 0.006555 0.001175
0.040119 -0.003923 0.000198
-0.041244 -0.000148 0.001521
-0.050971 0.001794 -0.000956
0.003816 0.001888 -0.000309
-0.018396 0.007294 0.002800
-0.028448 0.001447 0.004252
-0.030333 -0.009130 -0.000486
-0.013379 0.004350 -0.001215
-0.036311 -0.005323 -0.000795
-0.028689 -0.000878 0.002190
0.067703 0.003658 0.002659
-0.072889 0.006383 0.005884
0.017981 -0.003114 0.003758
0.064568 -0.012371 -0.005612
0.063435 0.011068 -0.002037
-0.017091 0.005670 -0.006503
-0.026918 -0.002802 -0.007098
-0.065603 0.005189 -0.001556
-0.064574 -0.009944 -0.005249
-0.044096 -0.005307 0.002443
-0.037839 -0.006455 -0.005003
0.027579 0.006703 0.002363
-0.055051 0.011658 0.005944
0.002344 -0.001725 -0.000215
0.048881 0.001751 -0.007358
-0.073335 0.007499 0.001380
-0.050397 0.001505 0.005470
-0.047619 -0.005747 0.005517
0.037829 0.006030 -0.006567
0.021021 0.008621 0.001172
-0.039359 0.005375 -0.003079
-0.046512 0.013473 0.001759
-0.039581 0.008433 -0.003489
0.011997 0.008374 -0.002467
-0.031838 -0.010102 0.003801
0.053114 0.010735 0.003045
-0.024666 0.012457 0.003542
-0.022982 0.002825 -0.004281
0.005258 0.007499 -0.004321
-0.057216 0.004402 -0.001092
-0.053932 0.008244 0.001467
0.027121 0.012486 -0.004478
-0.065578 0.010430 -0.004904
-0.027787 0.006838 -0.003758
0.046343 0.007409 0.006486
0.022375 -0.013900 0.006794
0.019234 -0.000675 -0.002294
-0.069360 -0.008832 -0.005088
0.002537 -0.014649 -0.002651
-0.045828 0.000704 0.006247
-0.006413 0.001511 -0.004789
0.037742 -0.008054 0.000203
-0.038547 0.002693 -0.002924
-0.029759 0.001563 -0.003305
-0.049044 0.014648 0.005685
0.062571 0.004668 0.001007
0.038684 0.003117 0.005706
0.016208 0.014766 -0.002193
0.071481 0.004719 -0.004049
0.024085 -0.013591 -0.002636
0.011470 0.003263 -0.002595
0.013906 0.007712 0.006122
0.052793 -0.002820 -0.002353
-0.048616 0.007825 -0.007082
-0.022520 0.012776 -0.000483
0.037825 -0.012731 -0.007117
-0.042440 -0.003373 -0.001824
-0.003506 0.001850 0.005438
-0.072355 0.008295 -0.006402
0.058080 0.005829 0.002548
-0.012425 0.006190 0.007200
0.061769 0.008424 0.007149
-0.000663 0.013286 0.001392
-0.038635 0.012748 -0.005025
0.056025 -0.001339 -0.002732
-0.036417 -0.006617 -0.000007
-0.012776 0.003073 0.002457
-0.060880 0.009558 0.007279
0.019222 0.001328 -0.007472
0.030208 0.012388 -0.002643
0.001196 -0.007371 -0.002932
-0.045208 0.007926 -0.004025
-0.069282 -0.003830 -0.002320
0.002290 0.001754 -0.000990
-0.042204 0.013866 -0.002837
-0.022614 -0.014006 0.005139
-0.062845 0.013723 -0.001461
-0.019489 -0.014616 0.000874
-0.011445 -0.011250 -0.003856
-0.005668 0.012748 -0.004398
0.011662 -0.001004 -0.007042
-0.068209 0.002844 0.003959
-0.002655 0.007573 -0.001161
0.068453 0.002320 0.001541
-0.057682 -0.005307 -0.005363
-0.017286 0.000317 0.007403
0.042647 -0.010452 -0.005560
-0.073221 -0.005509 0.003837
0.040948 0.009863 -0.003004
-0.069823 -0.010371 0.003800
-0.013840 0.011839 -0.002499
0.058859 0.014961 -0.005250
0.002405 -0.013652 -0.007290
-0.074013 -0.010389 0.004021
0.037756 -0.003317 -0.004187
-0.031887 0.007905 -0.004051
0.047537 0.006740 0.004700
0.038035 0.011821 -0.000294
0.010289 0.001318 -0.004796
0.059264 -0.013960 -0.007067
-0.013655 0.013755 -0.007273
-0.049872 0.009412 -0.004984
0.022407 0.006590 -0.006141
0.040034 0.012168 -0.003080
0.051994 0.004025 0.000093
-0.009409 -0.005620 0.005849
0.012279 0.002698 0.001155
-0.016838 -0.007263 -0.003314
-0.060429 0.001069 0.006861
0.029982 0.002760 -0.006666
-0.054393 -0.006323 0.001654
0.016416 0.011557 0.001935
-0.063218 0.010265 0.006470
-0.048492 0.006710 0.002678
-0.068702 0.006425 0.006694
-0.039823 -0.004119 -0.004596
0.047445 -0.013763 -0.001937
0.024002 0.012033 -0.000629
0.057885 0.004790 0.006061
0.065941 0.001010 0.002990
-0.019128 0.000991 -0.002462
0.067086 -0.004854 0.003993
0.054173 -0.007363 0.004028
-0.029799 -0.007677 -0.006727
-0.050112 -0.010217 0.000032
0.013305 -0.004748 -0.005212
-0.003433 0.010310 0.001109
0.048514 -0.002465 -0.001729
0.023121 0.005836 -0.005678
-0.001310 -0.002974 0.004774
-0.060973 -0.007594 0.003464
0.039576 -0.001264 0.006647
0.027077 -0.004334 0.005269
0.031239 0.007403 -0.006534
-0.012017 0.001605 -0.002664
0.030806 0.014817 -0.003265
-0.010088 -0.001287 0.002441
-0.038552 -0.012259 0.003870
-0.018162 0.003737 -0.005163
-0.007236 0.009263 -0.002543
0.061567 -0.010304 -0.006587
0.016071 -0.003603 0.007340
-0.058549 -0.012827 -0.001591
0.035067 0.001102 0.001034
0.051410 0.004347 0.001202
0.003056 -0.014946 0.003360
-0.041765 0.008651 -0.002192
0.027315 0.012605 0.000696
0.051430 -0.008402 -0.001958
-0.014978 0.010169 0.002822
-0.073802 0.008417 0.000137
-0.058300 -0.000129 0.000658
-0.061265 0.004454 -0.003057
0.022497 -0.001975 0.005324
-0.051786 -0.007506 0.004978
-0.000606 -0.008187 -0.007475
-0.039962 0.006116 -0.000381
-0.058910 0.010102 0.006417
0.002697 -0.004634 0.003628
-0.026994 -0.013438 -0.002886
0.040530 -0.000982 0.007126
-0.067101 0.014529 0.002376
0.003046 0.009939 0.005830
0.061966 -0.005191 0.002963
-0.039406 -0.007494 -0.003403
-0.045361 -0.013902 -0.001774
-0.061703 -0.006711 -0.000527
0.009388 0.010339 0.000692
0.019581 0.003521 -0.002892
0.043421 -0.000714 -0.005017
0.049046 0.000286 -0.005036
0.056082 -0.006109 -0.000433
-0.066919 0.011132 0.003674
-0.000957 0.013258 0.004036
-0.011910 -0.010743 -0.004920
0.058518 0.006296 0.004642
0.025242 0.010161 -0.004548
-0.032358 0.002328 0.005360
0.022315 0.013806 -0.004280
-0.033900 -0.007610 0.004765
-0.003138 -0.013638 -0.006381
0.016651 -0.014433 -0.002370
0.043685 -0.001107 -0.003599
-0.070245 -0.011809 -0.003145
0.046598 0.002690 -0.004771
-0.005583 -0.005394 0.006647
0.022472 0.011210 -0.000505
-0.044256 0.004457 -0.004830
0.013830 -0.011473 -0.005533
-0.036934 -0.009533 -0.007491
0.008063 0.003610 -0.004933
-0.066901 0.001091 -0.007445
0.004032 -0.004077 0.001391
0.058782 -0.001151 -0.007316
-0.038244 0.007448 0.004470
-0.022624 -0.014343 0.003745
-0.037880 0.001253 0.001901
0.069325 -0.008680 -0.003595
-0.067177 0.008800 -0.006788
-0.005836 -0.009221 -0.002112
0.001400 0.005256 -0.004492
0.005963 0.000792 -0.005056
-0.059182 0.009974 -0.000710
-0.025486 -0.014490 -0.004134
-0.026143 0.000786 -0.005254
-0.065588 0.003630 -0.001538
0.059043 -0.006420 0.000725
0.072224 0.005073 -0.001717
-0.074289 -0.003674 0.005013
0.072108 -0.002999 0.006621
0.008020 -0.001876 0.001985
-0.059294 -0.011632 -0.006829
0.026926 -0.006886 0.001206
0.015305 -0.007865 0.004000
0.007962 -0.013553 0.006413
-0.013327 -0.014231 -0.006913
0.065427 -0.002449 0.001617
0.035943 -0.014614 0.003777
-0.069320 0.009437 0.005237
0.021896 -0.001920 -0.006314
0.001305 -0.014427 0.004945
-0.042458 -0.002926 -0.006632
0.047572 0.011251 0.002780
0.011290 0.002773 0.002548
-0.023107 -0.004173 -0.001704
-0.025935 -0.013937 -0.007155
0.062771 -0.012567 0.006096
-0.029218 0.002362 -0.004467
0.037210 0.012893 -0.006432
-0.026260 0.007805 0.002342
0.003201 -0.002870 0.005047
-0.038371 -0.013726 -0.003985
0.057104 0.003912 -0.001207
-0.040226 0.002706 0.006852
-0.010348 0.005622 -0.003200
-0.036862 0.006844 0.002637
0.021942 0.004454 -0.005579
-0.070624 0.001683 -0.004776
0.008913 0.012575 -0.006208
0.052109 0.011437 -0.000102
-0.013906 -0.014521 -0.004828
-0.017532 0.010977 0.005061
0.057340 0.012129 -0.001224
0.031929 0.013539 -0.004153
0.022881 0.002942 0.004668
0.007199 0.014517 0.001734
0.016229 0.011337 0.001400
-0.039449 0.013983 0.003019
-0.004384 -0.006769 -0.002968
-0.004115 0.002350 -0.005851
-0.072524 -0.014183 -0.006229
-0.017524 0.000474 0.003138
-0.027336 0.005572 -0.004732
0.032023 -0.000251 -0.006710
0.007906 0.003239 -0.006381
-0.019764 -0.004118 0.000043
0.019234 0.005526 -0.006212
-0.012487 0.014904 -0.000691
-0.012292 0.000076 -0.005191
0.003575 0.014438 -0.005374
0.035096 -0.003873 0.003442
-0.050923 -0.011723 -0.004524
-0.016820 -0.004536 0.007053
-0.071860 -0.001390 -0.000836
-0.001635 -0.010095 -0.002320
0.054944 -0.002771 -0.003645
0.040479 0.005683 0.000143
0.014946 0.007409 -0.007429
0.036861 -0.012070 -0.005010
-0.064725 -0.001499 -0.005159
0.054369 0.010730 0.004576
-0.045054 0.011891 -0.000909
-0.061912 -0.002098 -0.006064
-0.002208 -0.004291 -0.005673
0.058763 -0.007964 -0.006088
0.034495 0.007939 0.002951
0.067500 -0.004635 0.004080
0.071667 -0.014908 0.001513
0.047346 -0.004168 0.005320
-0.007999 0.002542 -0.007449
0.025401 0.006689 0.000959
-0.068505 0.012383 -0.007282
0.027076 0.004437 -0.004129
-0.050605 0.007053 0.007263
0.031750 -0.001087 -0.003805
0.021702 -0.005335 -0.001558
0.020674 0.008367 0.003634
0.034413 0.008576 -0.007369
-0.061304 -0.012137 -0.002887
0.012020 0.000894 0.004062
-0.051166 -0.001904 0.003317
-0.056353 -0.012387 -0.007140
-0.001875 -0.001814 0.001089
0.055993 0.000739 0.002377
0.034936 0.011022 -0.003345
0.048781 -0.002141 -0.005951
-0.048437 0.010517 0.002789
-0.045445 0.014289 0.004402
0.070994 0.005310 -0.001482
-0.073733 0.012161 -0.003201
0.027993 -0.007487 -0.002190
0.038740 0.013542 -0.001370
0.038929 -0.005067 -0.003959
0.028830 -0.006264 0.004662
0.044744 0.013709 -0.005239
-0.069720 -0.001988 0.002541
-0.050132 0.009638 -0.001040
0.008618 0.005988 0.006591
0.022999 0.010978 0.006564
0.071843 -0.010826 -0.002622
-0.052181 -0.014722 -0.006280
-0.045339 0.001005 0.005077
0.008889 -0.001421 -0.001310
-0.025572 0.010472 0.000901
0.003779 -0.006344 -0.002646
-0.057477 -0.005966 -0.001707
-0.006759 0.008295 0.001902
0.002999 0.002919 0.004803
0.074661 -0.011331 -0.005418
-0.038566 0.006554 -0.001317
0.051172 0.011096 -0.001241
0.005981 -0.003432 0.002710
0.025463 -0.011959 0.006928
-0.034726 -0.004934 0.000612
-0.058317 0.000877 0.003874
0.065158 -0.001952 -0.005562
-0.033524 -0.008565 0.004512
-0.001412 -0.009664 0.001938
-0.003031 0.011269 -0.005409
0.005582 -0.012687 0.004503
0.074022 0.001350 0.006488
-0.011435 0.007944 0.004763
0.061775 0.009083 0.006813
-0.009549 -0.005478 -0.006832
-0.056888 0.004931 -0.006896
-0.057796 -0.008115 0.003389
-0.044976 -0.006930 -0.007026
0.054852 0.010321 -0.000010
-0.008155 0.008109 0.006964
0.004919 -0.010198 0.000452
0.048802 -0.014390 -0.001493
0.005651 -0.008941 -0.001686
0.050105 -0.002578 -0.005221
0.033453 0.008650 -0.005913
-0.016584 -0.001415 0.006181
-0.069187 -0.011364 0.001206
0.002728 -0.014349 -0.006117
-0.013087 -0.009881 0.000879
-0.031294 -0.007525 0.003051
-0.033498 0.001343 -0.007206
-0.020406 0.011911 -0.002159
-0.046251 -0.011821 0.006055
-0.048387 0.002317 0.004994
-0.072283 -0.014104 0.003742
-0.031620 0.008666 -0.001792
0.061841 0.013673 0.005857
0.038470 -0.003013 0.001245
-0.028970 -0.006577 -0.006896
0.071859 -0.003314 0.004844
0.060287 0.006545 -0.003614
0.017430 -0.006978 0.002504
-0.073091 0.013374 -0.001818
0.069850 0.004723 -0.006730
-0.018795 -0.010684 -0.000191
0.039885 0.001054 -0.002565
0.050189 0.010175 0.000638
0.062798 0.013141 0.003145
0.072917 0.000847 0.001939
0.011269 0.004610 0.002490
-0.057246 0.004000 -0.003027
0.019581 0.000779 0.007106
0.044574 0.000475 0.001219
-0.071570 -0.007249 0.005867
0.062891 0.009739 -0.001919
0.006413 0.014316 -0.001070
0.066648 0.008248 -0.004962
-0.073121 -0.002233 0.000728
0.027490 0.006079 0.002226
-0.073360 -0.005907 0.004414
0.016050 0.003798 -0.003110
-0.039269 -0.002399 -0.007240
-0.064142 -0.011461 -0.003095
-0.053208 -0.003387 0.001146
-0.071143 -0.003522 -0.001224
-0.070999 0.002612 -0.004490
-0.037865 0.009583 -0.004077
0.017902 -0.007688 -0.004193
-0.060029 -0.014601 0.005883
-0.029731 0.012249 -0.006359
-0.012248 -0.002606 0.006079
0.011182 0.011499 0.002761
-0.016451 -0.005723 -0.002927
-0.013818 0.005162 0.002781
0.048686 0.012552 0.000254
-0.069592 -0.004411 0.004726
-0.029581 0.007388 0.004200
0.066360 0.003840 -0.000088
0.008640 0.003893 -0.003513
0.071498 0.011857 0.002032
-0.061115 -0.012302 -0.004248
0.053776 0.001432 -0.006799
-0.022333 -0.002259 -0.002962
-0.053404 -0.007596 -0.006829
0.005775 -0.001070 0.005496
0.061173 0.011726 -0.007473
-0.046166 -0.004433 -0.002691
0.074571 0.014657 -0.002020
-0.020168 0.007164 0.003497
-0.017242 0.012760 0.000090
0.074942 -0.004133 -0.000186
0.063888 -0.012516 0.001777
0.053718 0.006754 -0.003883
-0.052184 0.002121 -0.003226
-0.023396 0.009605 0.000942
-0.055608 -0.007400 0.007160
0.016130 -0.005052 -0.005151
0.018298 -0.002066 -0.004356
0.047689 -0.006584 -0.007108
0.069212 -0.007739 0.002606
0.073841 0.006608 0.004098
0.074036 0.004291 -0.003540
-0.015360 0.004862 -0.005105
-0.002145 -0.003562 -0.000340
0.002330 -0.001022 0.003125
-0.031300 0.007153 -0.002914
0.063291 0.007632 -0.002397
0.059375 -0.001665 -0.005847
-0.008752 -0.010901 -0.007448
0.068089 0.010529 0.005322
0.064693 0.003325 0.002626
0.053995 0.006107 -0.002895
-0.046142 0.012557 -0.002290
-0.013082 0.003359 0.005198
-0.059528 0.010532 -0.000017
-0.071111 0.005943 -0.002123
-0.007138 0.009958 -0.005486
0.050219 0.003342 0.005993
-0.043191 -0.009193 0.000783
0.042570 -0.014351 -0.004817
0.056449 -0.004315 -0.004586
-0.017655 -0.013344 0.005318
0.048381 -0.008126 -0.001955
-0.003317 -0.000021 0.005403
0.068781 0.013831 0.007210
0.059620 0.000423 -0.002706
0.037780 -0.007020 -0.007463
-0.068695 0.001557 0.001751
-0.045622 -0.007665 0.002150
0.009248 0.008802 0.002461
0.050579 0.009683 -0.005275
0.001300 0.007067 -0.005694
-0.047781 -0.006840 0.007108
-0.005495 0.013567 -0.005826
0.070668 0.005841 0.004067
0.025936 -0.006540 -0.002888
-0.002367 -0.002016 -0.004191
0.052418 0.010916 0.003616
-0.070484 -0.003854 -0.002032
0.002851 -0.007175 0.001739
0.058398 0.006328 -0.006510
-0.000146 -0.001196 -0.001339
0.053733 0.003842 0.001774
0.025194 0.004540 -0.005863
-0.024526 0.011170 -0.004105
-0.018446 0.007093 -0.004798
0.072366 0.008768 -0.001855
-0.029625 0.012553 0.007241
0.006432 0.008453 -0.003603
0.004371 -0.012300 0.004287
0.001189 0.013253 0.000044
-0.052911 -0.003278 0.005235
-0.062886 0.007066 -0.002875
-0.007491 0.011450 -0.007496
-0.017501 0.007077 0.001215
-0.022276 0.001230 -0.005969
-0.000501 0.012865 0.000444
-0.049516 0.011580 0.001261
0.070866 -0.009709 -0.007389
-0.062846 0.005774 -0.004438
0.031545 -0.003081 0.003594
-0.057674 -0.003031 0.000944
-0.054244 0.007804 -0.003321
-0.029072 -0.004393 -0.003494
0.027051 -0.006939 -0.001841
-0.042507 0.013591 0.003780
-0.001626 0.001527 0.002620
-0.060804 0.010055 0.005195
-0.024225 0.003242 -0.002801
0.046965 -0.003023 0.005154
0.035361 0.014073 0.002488
-0.050189 -0.011225 0.000849
0.012925 -0.002496 -0.005183
-0.012356 -0.013113 -0.000308
-0.014103 -0.010275 0.006886
-0.005531 0.010126 0.002246
-0.022702 -0.005827 0.004647
-0.059514 0.008701 -0.004637
-0.037112 0.001559 -0.005846
-0.008817 0.012411 -0.001908
-0.071033 -0.006822 -0.004227
-0.054128 -0.004503 0.004612
0.038898 0.006560 0.003881
-0.008650 -0.004543 0.007252
-0.048118 -0.007281 0.001239
-0.008424 -0.000643 -0.006265
-0.019196 0.003977 -0.001038
-0.011356 0.002090 0.002429
0.031869 -0.012503 0.000191
0.073240 -0.009294 -0.004804
-0.014662 -0.006893 0.007162
-0.034628 -0.005241 0.001643
0.011002 -0.012011 -0.001758
0.032012 0.014718 -0.005241
0.064042 -0.005363 -0.000417
0.015564 -0.005978 0.006196
0.029163 -0.007749 0.000614
-0.067109 -0.001235 0.005474
0.001828 -0.002536 0.006473
-0.016134 0.010319 -0.005841
-0.045775 -0.010153 -0.002039
0.040679 0.014257 0.000813
0.064636 -0.012103 -0.002402
-0.030648 -0.010541 -0.002860
-0.036532 -0.009765 -0.002956
0.014348 0.013338 -0.001454
0.034308 -0.006141 -0.003927
0.044201 0.012223 -0.007226
0.045866 -0.007477 -0.001379
-0.060290 -0.012055 0.001517
0.056603 0.009885 0.001417
0.000099 -0.001600 -0.001407
-0.044787 -0.005928 0.003456
0.007287 0.001066 0.000572
0.030098 -0.008259 0.005853
-0.044806 0.012083 0.006724
-0.059625 0.009540 -0.001954
0.001431 -0.011469 -0.006005
-0.020135 -0.013357 0.005672
0.067235 0.013025 0.001786
0.055478 -0.007297 0.005540
-0.016376 -0.012684 -0.006319
0.014249 -0.006112 0.000238
-0.002375 -0.002899 -0.001549
0.066335 0.007661 0.002636
-0.001400 0.008490 -0.007057
-0.043551 -0.014753 0.006407
0.001109 -0.007811 -0.005342
0.041872 0.008488 0.005717
0.036054 0.010184 -0.007239
0.036874 0.013981 0.004124
-0.004728 0.014155 -0.000495
-0.042656 -0.010873 0.002347
0.061410 0.008736 0.004261
0.009874 0.005943 -0.004068
-0.039864 0.004864 0.006939
-0.003544 0.003099 0.004273
0.005734 0.006380 0.002235
-0.007798 0.010171 0.005363
0.052470 0.000147 0.001248
-0.017556 -0.001870 0.005404
-0.057782 -0.007506 0.000000
0.047006 -0.002231 0.000797
0.028979 -0.011129 0.004037
-0.013748 -0.014038 0.001926
-0.067397 -0.013100 0.006492
0.016118 0.002387 0.002721
0.022966 0.013287 0.005919
-0.005943 -0.003601 -0.000402
0.019987 -0.003266 -0.000228
0.052896 0.008323 0.005088
-0.024033 0.002425 0.000627
-0.022871 -0.001750 0.004011
-0.045558 0.014664 0.005967
-0.008390 0.009907 -0.005115
-0.032616 -0.005640 -0.004096
0.061314 -0.007701 -0.005885
0.059382 0.006310 -0.006100
0.061936 -0.006930 -0.002336
-0.059591 0.005186 0.000440
0.055866 -0.012682 0.001847
0.037729 -0.007906 -0.002069
0.003492 -0.005221 -0.006363
-0.033733 0.000458 0.003663
-0.027022 0.013135 -0.002172
-0.026652 -0.010776 0.006330
0.058129 -0.014342 -0.002393
-0.030508 -0.009221 -0.000884
-0.005617 0.009029 -0.006298
0.008175 0.010879 0.000134
-0.028266 -0.005377 0.000873
0.070682 -0.014148 -0.003922
-0.039762 -0.008470 0.004897
-0.047916 0.010226 -0.001311
-0.033067 0.003225 0.005956
0.051222 0.006967 0.004758
-0.043544 0.003780 0.001225
0.049634 0.004736 -0.002394
-0.004525 0.005928 0.003253
-0.038718 -0.009649 0.004982
-0.041715 0.008970 -0.005998
-0.017269 0.014496 -0.005526
0.019139 0.006713 0.004311
0.069685 0.013151 0.001107
0.053133 -0.003112 0.006037
-0.072325 -0.004887 -0.000358
0.074212 -0.014367 -0.000992
0.050686 0.002525 0.000223
0.064924 -0.013618 -0.000327
-0.064755 0.013214 0.006523
-0.033989 0.004870 -0.004976
-0.010746 -0.007625 0.007457
0.032858 0.007894 -0.004459
0.070779 0.012057 0.005005
0.005839 0.001235 0.001515
0.016485 -0.001636 0.007225
0.041293 0.011058 0.000153
-0.043685 -0.012221 0.001698
-0.072065 0.001974 -0.002351
-0.062482 0.000871 0.002314
0.000812 0.007588 0.004775
-0.001847 0.012553 0.003072
0.058351 -0.003715 0.004478
0.044450 -0.005971 0.002002
0.060402 0.011710 -0.002110
0.065588 -0.004542 -0.003885
0.068043 0.007542 -0.004514
-0.073342 -0.007134 0.002500
0.010941 0.009791 0.001706
-0.041958 -0.011816 0.006101
-0.018084 -0.009265 0.006149
-0.038266 -0.013028 0.002626
-0.048445 0.012777 0.004108
0.070485 0.011714 0.000520
0.030885 0.011227 -0.004303
0.021253 0.003785 0.005392
0.008287 0.011699 0.003336
0.018183 0.005592 0.003395
-0.064793 0.012740 0.005186
0.069938 0.011262 0.007236
0.036276 -0.007600 -0.000167
0.053160 0.001505 -0.004640
-0.073011 -0.005458 -0.002244
-0.027386 0.004014 0.000829
-0.005321 -0.006664 -0.007055
0.054076 -0.009124 0.000603
-0.005037 -0.008370 0.006144
0.038262 0.007748 0.004949
0.068914 0.010788 -0.005261
-0.000249 0.004598 0.003083
-0.052448 -0.009318 0.004028
0.009030 -0.007087 -0.004373
-0.065804 0.011514 -0.004034
0.071199 -0.005350 -0.003943
-0.037744 -0.004050 -0.005662
-0.057570 -0.013331 -0.006705
-0.032313 0.000371 0.007029
-0.023330 -0.009560 -0.005430
0.062909 0.006860 -0.005420
-0.051764 0.000692 -0.005824
0.010459 0.006710 -0.001469
0.032991 0.005886 -0.002995
-0.035338 0.007914 -0.004747
0.057243 -0.003256 0.005694
-0.035591 -0.005797 -0.000387
-0.042949 -0.014565 0.007215
-0.015481 0.005651 0.003405
0.015538 0.012732 -0.004264
-0.039030 0.007347 -0.005844
0.037142 -0.001943 0.007393
0.039151 0.001264 0.000608
-0.049127 -0.008128 -0.007142
-0.066435 0.001533 -0.000645
0.014066 0.007281 -0.001679
0.051921 0.013771 0.001632
0.042816 0.013119 -0.005619
0.036391 -0.000821 -0.004991
0.021438 0.013619 0.004209
-0.006890 0.005222 0.006100
0.045389 -0.010375 0.003851
-0.054209 -0.009197 0.003102
-0.015826 -0.006856 -0.003439
0.064403 -0.008657 0.002445
0.014311 0.010617 0.005324
0.033657 0.003030 0.003648
0.034140 -0.004229 -0.005330
-0.039895 0.012785 -0.002319
0.018578 -0.005153 0.004793
-0.045827 0.009603 -0.004098
0.020781 -0.007986 0.001563
0.044908 -0.011637 0.004837
-0.047697 -0.009904 0.002209
0.011763 -0.004752 0.002803
-0.035580 -0.010830 0.004581
0.007103 -0.012881 0.000911
0.067430 0.012280 -0.002087
-0.046386 -0.009729 0.001709
-0.043671 -0.002424 -0.006759
-0.032150 0.004048 -0.003117
-0.007199 0.002193 0.002927
-0.038210 0.011081 -0.002031
0.035459 -0.004376 0.007051
0.039819 0.014965 0.002673
0.019513 -0.014730 0.004299
-0.033661 -0.007186 0.001820
-0.058519 -0.012822 -0.004711
-0.042574 0.013523 0.001611
0.003074 -0.013584 0.003030
-0.002341 -0.002850 -0.000783
-0.028909 -0.002364 0.000371
-0.019970 0.002317 -0.001335
-0.062095 0.010573 0.004845
0.029356 -0.004295 0.006975
0.069360 -0.003966 -0.001416
0.026415 -0.004042 -0.002845
-0.004761 -0.003678 -0.006695
-0.070399 0.009998 -0.004899
0.033391 -0.000691 0.001776
-0.007976 0.006395 0.003700
0.058076 0.001432 0.004359
-0.001232 0.012444 -0.000577
-0.030613 0.007030 0.000695
0.036814 -0.011162 -0.001192
-0.042843 -0.011355 -0.002183
0.064855 0.001712 0.003429
0.063467 0.003509 0.003768
0.059466 0.001676 0.000445
-0.050818 -0.004516 0.004997
0.073678 -0.014123 -0.001698
-0.008868 0.003463 0.000715
-0.001589 -0.006687 -0.000314
0.017847 0.001591 0.005763
-0.067910 0.002475 -0.003137
0.033674 0.000360 0.005679
0.026028 0.010977 -0.000548
0.063849 -0.005198 -0.004383
-0.048101 -0.001231 -0.005337
0.027827 -0.014938 0.006260
-0.039877 0.001600 0.001994
0.033708 0.008942 0.000077
-0.014518 0.005936 0.002004
0.018936 -0.004201 0.005799
-0.045715 0.008214 0.002863
-0.064849 0.010384 0.005007
0.040816 0.002465 -0.003170
-0.064309 -0.012089 -0.002541
0.037552 -0.005483 0.005845
-0.054825 -0.010812 0.001591
-0.023813 -0.011463 -0.004400
0.040193 0.006496 0.000300
-0.000365 -0.007053 0.001799
0.035534 -0.012266 -0.003963
0.021728 -0.001643 0.003225
0.017140 0.014424 0.002508
0.023298 -0.014746 -0.007400
0.052828 -0.003007 -0.005766
0.064504 -0.002345 -0.006677
-0.065841 -0.002920 0.006806
0.042651 -0.002038 -0.000879
0.064101 -0.004646 -0.005637
-0.016010 -0.009923 -0.002656
-0.024021 -0.012670 -0.003737
-0.032336 -0.008091 0.001535
0.042858 0.010898 0.001233
-0.001691 0.001371 -0.003649
0.027877 -0.002327 -0.004757
0.067047 0.002797 0.005758
-0.050658 0.007257 0.005786
0.073006 -0.000598 0.000057
0.051149 0.014011 0.006795
-0.021282 -0.009783 0.000716
0.029846 0.001931 -0.007388
0.037230 -0.005629 0.004632
-0.011849 -0.008296 0.007050
0.011030 -0.003363 -0.002433
0.016557 0.004106 -0.006565
-0.027365 -0.000546 -0.004707
-0.000924 -0.006180 -0.000339
0.027261 0.013785 0.002482
0.009359 0.013781 0.000216
0.068668 -0.000202 -0.004097
-0.006375 0.002807 0.001435
-0.063414 -0.009708 0.005380
0.001607 0.008106 0.005162
-0.040810 0.003199 -0.005910
0.060502 -0.010535 -0.005726
0.058372 -0.014922 -0.001630
0.015945 -0.000235 -0.004045
-0.026309 -0.003569 -0.004698
-0.073716 -0.010627 0.000868
-0.044276 0.010735 0.003761
-0.015265 0.011529 -0.004701
-0.026663 0.008045 -0.006852
0.028148 -0.003943 -0.003538
0.040464 0.002130 -0.007361
-0.056781 0.006720 0.006274
0.071008 0.011066 0.004356
-0.070075 -0.008811 -0.001589
0.047452 0.014832 -0.003512
0.045159 -0.005339 -0.004376
0.049139 -0.006547 0.002600
0.066486 0.004989 -0.000612
0.057393 -0.008339 -0.001919
-0.011792 0.010821 0.003937
-0.005868 0.009999 0.003189
0.074465 -0.010941 -0.002249
0.044164 -0.012887 0.004574
-0.001680 0.001956 -0.004433
-0.025275 0.000216 0.003519
-0.067145 -0.014271 0.001322
0.052083 -0.010543 0.000833
0.037701 -0.006894 0.006546
0.049559 -0.007860 -0.006246
-0.060116 -0.009891 -0.002856
-0.004100 0.001992 -0.001996
-0.035879 -0.009868 -0.004810
0.003686 0.012418 -0.007206
-0.045432 -0.014343 -0.000705
0.027441 0.000547 0.006206
0.003751 0.014768 -0.006060
0.008940 -0.008268 -0.004224
-0.050854 0.013712 -0.004140
-0.020509 0.004594 -0.000614
0.038266 -0.005228 0.000343
0.012454 0.012058 -0.007149
0.015806 -0.003732 -0.002968
0.051674 0.013880 0.004823
0.015814 -0.003688 -0.002659
-0.004019 0.012378 0.003407
-0.073755 0.014409 -0.000280
0.033099 0.003387 -0.001125
-0.054424 -0.013470 0.000309
-0.043359 0.014839 -0.007323
0.018226 -0.012015 -0.002504
0.018145 0.014989 0.002727
0.058682 0.001835 0.001221
0.042770 0.010670 -0.004768
0.057567 -0.003138 -0.002902
-0.064341 -0.006541 0.004714
0.014458 -0.013565 0.000839
-0.034640 0.006741 -0.001026
0.074683 -0.012646 0.005074
-0.021030 0.003588 -0.003857
-0.027656 -0.000808 0.000513
0.001770 -0.002220 -0.004471
0.053830 0.014483 0.003808
-0.007833 -0.005779 -0.005684
0.012353 0.001597 0.001927
0.070649 0.010209 -0.004689
-0.012872 0.010137 0.006025
-0.002498 0.011698 0.002182
0.066772 -0.002957 -0.004174
0.015639 0.004823 -0.004231
0.041552 -0.001590 0.007101
-0.018080 0.005829 -0.003748
-0.020874 0.008459 -0.005770
-0.021100 -0.005018 0.001298
0.073640 0.013615 0.003327
-0.001840 0.003549 0.002982
-0.055975 0.003837 0.007484
0.038535 -0.001071 -0.006437
-0.033384 0.008277 0.007225
0.064835 -0.008434 0.000105
-0.044024 0.008259 -0.000264
-0.043586 -0.001439 0.000661
-0.065505 -0.000827 -0.002679
-0.033830 0.010756 0.003063
-0.060740 -0.010450 -0.006604
0.038671 -0.007295 0.001852
-0.066054 0.013960 0.002675
-0.006030 0.007550 -0.001465
-0.064096 -0.005161 -0.004826
0.047644 -0.002202 0.003241
0.025951 -0.013572 0.000408
0.039451 -0.007223 0.003933
0.073016 -0.009364 0.005786
0.024970 0.003184 -0.004904
0.034793 -0.014112 -0.006364
0.012484 -0.004872 -0.006392
0.016187 -0.002624 -0.000630
-0.061062 -0.005453 -0.003829
-0.060102 0.008483 -0.007437
0.066679 -0.007488 -0.005236
0.040856 -0.004271 -0.006933
-0.059016 0.010690 0.000354
-0.043058 0.003811 0.003698
0.027921 0.011076 0.002974
-0.046725 -0.000045 0.004847
0.062316 -0.009048 -0.007210
0.001284 0.001282 -0.006904
-0.052807 0.002065 -0.002632
-0.035099 0.008737 0.000219
-0.004583 0.011951 0.005095
0.036366 -0.013092 0.001337
-0.047892 0.004891 -0.005152
0.036453 0.006737 0.003502
0.069116 0.002010 -0.007035
0.037105 0.006886 0.003175
0.054867 0.006008 0.004167
0.055905 0.002087 -0.002732
0.028285 0.008377 0.003904
-0.021587 0.003851 0.002705
0.071154 0.001909 0.006006
0.063619 0.001061 -0.000431
0.025262 -0.011886 -0.005427
-0.015062 -0.002122 0.006045
0.039003 -0.002981 -0.001524
-0.004010 -0.014869 0.005053
-0.058101 -0.013017 -0.006146
-0.040579 0.008029 0.005306
0.068914 0.007247 0.002309
-0.001838 -0.012645 0.001677
0.024781 -0.006210 0.005076
0.008100 0.012296 -0.006888
0.060357 -0.009764 0.003224
0.029484 -0.010071 0.002095
-0.029803 0.001584 0.006294
-0.033403 0.011840 0.004001
0.058727 -0.005289 -0.004419
-0.010376 -0.002321 -0.002047
-0.015626 -0.003683 0.000686
-0.070173 0.012381 -0.000254
0.024190 -0.014187 0.000025
0.057449 -0.005063 -0.000764
-0.060029 -0.001413 -0.006620
0.007266 -0.013459 -0.005995
0.069285 0.007062 -0.002595
0.051666 -0.011367 -0.000969
0.056487 -0.000968 -0.001006
0.056537 -0.006384 0.006618
0.068068 -0.003969 0.005872
0.056341 -0.001089 0.001822
0.039668 -0.006360 0.004548
-0.069713 0.009166 -0.003027
-0.049987 0.011131 0.000976
0.036216 -0.004622 -0.000907
0.056885 -0.009331 0.004711
-0.040957 0.000323 0.003002
0.024637 0.001564 -0.003511
0.000451 -0.009056 0.001587
0.025296 0.006172 0.003759
0.057235 0.012402 0.006265
-0.042277 0.010454 0.002909
-0.059484 -0.004037 0.000708
0.031035 0.014808 0.001293
-0.004807 0.006258 -0.000635
-0.014189 0.013375 0.003072
-0.023730 0.008548 0.003281
-0.041168 0.001697 -0.003302
0.027184 0.002832 0.002244
0.068436 0.014586 0.001558
-0.053408 -0.005824 -0.005948
0.016110 -0.003077 -0.005042
0.049654 0.009804 -0.007251
-0.058321 0.013974 -0.005735
-0.063106 0.005908 -0.002535
0.026918 -0.007231 0.004119
-0.000554 -0.011527 0.004041
-0.071738 -0.005070 -0.007223
-0.015683 0.013900 0.005244
0.051375 0.014782 -0.004553
-0.072690 0.012439 0.002755
0.052357 -0.002789 -0.004696
0.030132 0.006890 -0.002376
0.003122 -0.001424 0.004996
0.015846 -0.007635 -0.006737
-0.003162 -0.006336 0.005320
0.062565 -0.014578 0.003636
0.005363 -0.005854 0.001560
-0.051452 0.011535 0.005711
-0.028819 -0.003834 -0.007264
-0.022632 -0.011239 -0.002259
0.041356 -0.012173 0.003324
0.023554 0.003970 -0.001526
-0.002738 0.004193 -0.004760
-0.029065 0.000549 0.001509
-0.000234 -0.000342 0.007468
0.025781 0.007102 0.003871
-0.067514 0.012695 0.003419
-0.022258 0.000849 0.001998
0.026764 0.009467 0.002908
0.013095 0.006735 0.004473
0.069524 -0.005861 -0.006933
0.040238 -0.008862 0.001061
0.053859 -0.008006 0.003340
-0.050946 -0.005720 -0.005481
-0.066913 0.007785 -0.004943
0.052635 0.008188 -0.006733
-0.068164 -0.014335 0.002051
0.044567 -0.010876 0.000666
-0.034965 -0.002124 -0.004165
0.062374 -0.001774 0.006472
-0.021458 -0.013440 0.001875
-0.065924 -0.009014 -0.003186
-0.070969 -0.014206 0.004158
-0.018554 -0.009464 -0.000759
-0.033822 -0.014204 0.001782
0.027890 0.008080 -0.004089
0.035828 -0.014350 0.003952
0.020634 -0.008491 -0.006120
-0.032554 0.012729 0.000816
-0.000391 -0.013454 0.000106
0.041782 0.006864 -0.000854
0.034430 0.009150 0.000926
0.057492 0.013787 0.002795
-0.020930 0.000238 -0.000881
0.054753 0.013651 0.006368
0.009873 0.004165 -0.001632
0.063463 0.009741 0.006254
0.054163 -0.012137 0.004876
-0.025821 -0.012335 -0.000562
0.074384 -0.001327 -0.003652
0.048769 -0.013688 0.006944
0.004985 -0.004482 -0.007360
-0.023680 -0.012611 0.006628
0.049488 -0.010751 0.001904
-0.030620 0.009179 -0.001616
0.071440 0.001732 0.006203
0.027971 0.005782 -0.006116
-0.014833 0.013449 0.005979
0.015455 -0.006708 0.004988
-0.055792 -0.006773 -0.005436
-0.010516 -0.002791 0.006228
-0.052948 0.005027 0.004833
0.060947 -0.001345 -0.003919
-0.007333 -0.014366 0.007320
0.019296 -0.014487 -0.004812
0.048752 0.013982 0.000317
0.072152 -0.006892 0.001961
0.026507 -0.010114 -0.000844
-0.012190 -0.002157 0.000113
0.070623 -0.001767 -0.005352
0.028006 -0.003545 0.006468
-0.048883 -0.000094 -0.004655
-0.070744 -0.001812 0.004518
-0.033939 0.014905 -0.001720
0.022782 0.005807 0.004541
-0.051237 0.012724 0.001597
0.010395 0.010208 0.004579
-0.050833 -0.000517 0.001198
-0.031359 -0.009890 -0.001235
-0.022651 0.009814 -0.003755
-0.034245 -0.004305 -0.005942
0.006888 0.001819 0.001100
0.005514 -0.014418 -0.005379
-0.051917 -0.011744 -0.007306
-0.047902 0.008479 0.005835
-0.074575 -0.012904 -0.007094
0.048165 -0.005231 0.000562
-0.019914 0.008341 -0.004059
0.009743 0.008739 0.000032
-0.036550 -0.004722 -0.000019
0.033111 -0.006115 0.000449
-0.056057 0.008250 -0.006076
0.021827 0.013235 0.003726
-0.020103 -0.014106 -0.006595
0.027303 -0.003887 0.003707
-0.029242 -0.001824 0.004690
-0.020243 0.004659 0.003782
-0.055236 0.011507 -0.003238
0.017535 -0.010552 0.005496
0.026695 -0.006484 0.004053
0.059180 -0.007289 0.004266
-0.029937 0.001425 -0.000027
0.067167 0.012143 0.006414
-0.065540 -0.014278 -0.000519
-0.016395 0.009618 0.004367
-0.041126 0.014677 -0.001032
-0.018258 -0.011386 -0.007274
-0.064758 0.002574 0.004234
0.069542 0.008349 0.002982
-0.072883 0.010643 0.002840
-0.074740 -0.007327 -0.004848
-0.000720 -0.005142 0.003290
-0.020223 0.000725 0.003036
0.036900 -0.004507 0.005698
-0.055075 -0.010292 0.007234
-0.057875 0.014238 0.003353
-0.054620 -0.002219 0.000403
0.057081 -0.013175 -0.002426
-0.008587 -0.009839 -0.007484
0.016350 0.013330 0.002134
0.015353 0.011466 -0.002264
-0.072496 0.011630 -0.003177
-0.038444 -0.012243 -0.007157
0.063130 -0.008255 -0.002465
-0.031680 -0.005651 0.006277
-0.073032 0.009020 0.007376
-0.057233 0.001743 0.005823
-0.037191 0.010747 0.005542
-0.062981 -0.011433 0.001922
-0.053552 -0.003621 -0.007365
0.021726 -0.011911 0.001186
-0.038960 -0.010729 0.006270
0.055238 -0.010697 -0.001169
-0.000590 0.011720 -0.000438
0.063803 0.001016 0.005720
0.054702 0.012657 -0.004542
0.002605 0.002732 0.002262
0.061997 0.013468 -0.002149
-0.039935 0.009051 0.004977
0.068426 0.013264 -0.003002
0.070383 0.002728 -0.004440
0.013008 0.006621 0.006631
-0.059653 -0.004541 0.003915
0.038558 -0.004894 -0.005428
0.006733 0.005531 -0.006457
0.050774 0.000934 0.005673
-0.032932 -0.000817 0.003625
0.036920 0.008108 0.002127
-0.072711 0.000270 -0.006906
0.003596 -0.005768 -0.003884
-0.004187 -0.010514 0.004395
0.042176 0.007273 0.001186
-0.065245 0.003869 -0.001687
0.017973 -0.010378 0.006998
-0.019884 -0.006507 0.006568
-0.046520 0.001383 0.000252
-0.039240 0.007802 0.003278
-0.041881 0.010429 -0.004205
-0.018181 0.001368 0.007500
-0.026248 0.000580 0.003051
-0.051452 -0.003477 -0.006126
-0.015013 -0.013530 0.006836
0.032202 -0.005866 0.004496
0.053611 -0.012308 0.000536
0.046935 0.005706 -0.005163
0.048535 -0.013507 0.000807
-0.003024 -0.004282 -0.002012
0.050026 -0.004696 -0.004461
0.012437 0.010047 0.004225
-0.025515 -0.009643 0.003142
0.062122 0.012490 0.004013
-0.021931 -0.007894 0.001453
-0.004454 -0.004309 0.003748
0.026921 -0.005704 0.005355
0.039098 -0.012235 -0.004809
-0.049162 0.004628 -0.007337
0.011400 0.009511 -0.006455
-0.018258 -0.007681 -0.004468
0.058527 0.005117 0.002293
0.013947 -0.002867 -0.005923
0.035131 0.008585 0.000469
-0.054535 0.009245 0.006310
-0.060075 0.004898 -0.000320
-0.073147 0.004813 -0.007210
-0.058400 -0.002889 0.004982
0.047882 -0.002254 0.004791
-0.038304 0.005230 0.005319
0.049442 -0.012822 -0.003181
-0.038186 -0.005140 -0.006501
-0.038957 -0.007230 -0.006624
0.027761 0.007674 -0.002141
0.059344 -0.004661 0.001199
0.007338 -0.005167 0.005136
0.021346 -0.012863 -0.000359
0.069774 0.001270 -0.000539
-0.051517 0.011396 -0.006923
-0.032345 0.005533 -0.001027
-0.036177 0.009786 -0.002667
-0.020692 0.010862 -0.005124
0.071173 -0.003473 0.001889
0.012767 0.013351 0.000169
-0.020688 -0.005200 -0.004186
0.017112 0.010728 0.001557
0.055291 0.000058 0.004407
-0.011519 -0.008840 -0.005879
-0.029006 0.006140 0.001291
0.044629 0.006860 -0.002969
0.007134 0.000195 0.002863
0.060412 0.002648 0.006184
-0.049981 -0.007354 -0.001778
-0.018152 -0.001959 -0.002811
-0.038417 0.003262 -0.004316
-0.043326 0.004411 0.004339
0.068357 0.007976 0.005549
-0.056382 -0.002178 0.002807
-0.068630 0.003830 0.001314
-0.010579 0.011662 0.001647
-0.036238 0.014380 -0.007168
-0.007579 -0.000531 -0.005721
0.042026 -0.014333 0.006794
0.001454 0.001708 0.000971
-0.057224 -0.011977 -0.000724
-0.022325 -0.013753 0.002389
-0.044603 -0.010065 0.000662
0.052560 -0.012424 0.001823
0.051792 -0.014189 -0.003998
-0.038190 -0.005248 0.002258
0.035725 0.004653 0.005077
0.022214 0.005849 -0.002588
-0.032257 0.014551 0.000887
0.057846 -0.002335 0.004046
0.070422 0.009853 0.006717
0.005701 -0.005453 -0.004911
-0.024646 -0.007490 0.002358
0.039026 -0.005730 0.006889
0.056865 0.000436 -0.006554
-0.065922 -0.003563 -0.006708
-0.059239 0.011446 -0.007031
0.013104 -0.005065 -0.003789
-0.063470 0.007510 0.004439
0.074845 0.012618 0.003664
-0.070736 -0.001422 0.005025
-0.027254 0.003383 0.002376
0.006533 -0.000352 0.001899
0.005502 -0.000787 0.004354
0.044180 0.013440 0.006658
0.005375 -0.004166 -0.004593
0.029568 -0.004514 -0.002576
0.057339 0.001861 0.003598
-0.019461 -0.012017 0.006612
0.057450 0.003819 0.002336
-0.055371 -0.012691 -0.004999
-0.031235 0.006610 -0.000440
-0.027844 0.014677 0.005390
-0.044789 0.008572 0.001406
-0.037296 -0.011626 -0.007026
-0.043720 0.010605 -0.005609
0.017705 -0.001716 0.006452
0.056824 -0.004419 -0.002573
-0.074402 -0.008862 -0.006050
0.028819 -0.004318 -0.002538
-0.025651 0.001279 -0.003012
-0.066877 -0.001484 -0.001698
-0.060797 0.009493 0.003515
0.009064 -0.007409 -0.003635
-0.000275 -0.008335 0.005286
0.010764 0.000931 0.002960
0.035535 -0.008790 -0.002161
0.052471 0.006215 0.006532
-0.023080 0.001750 -0.001034
-0.043373 -0.002681 -0.006072
-0.015843 0.010117 0.007300
-0.074635 -0.007848 -0.002019
-0.053108 -0.002345 0.005410
-0.011030 0.010361 -0.005426
0.062416 0.012774 -0.004936
0.041942 0.007385 0.002451
0.056333 0.002635 -0.004216
-0.074124 0.002236 -0.003875
0.034391 0.004914 0.000608
-0.050175 0.003399 0.004379
-0.074965 0.010254 -0.001269
0.056263 0.013982 -0.005210
0.061397 -0.003315 0.002600
0.048077 0.002232 0.006186
0.066137 -0.004105 0.001117
-0.006254 0.004379 0.005924
-0.031346 0.004637 0.003604
0.026031 0.003826 0.006331
-0.035654 0.000663 -0.001047
0.018544 -0.001029 -0.005966
-0.012696 0.008050 -0.007382
-0.011986 0.011500 0.003990
0.048424 0.000664 -0.001688
-0.058647 -0.005060 -0.007014
0.069729 0.013335 0.006058
0.026589 0.013851 0.005720
0.004352 -0.005357 -0.006926
0.074727 -0.002783 0.005240
0.070668 -0.000883 -0.003095
0.060379 -0.000803 -0.001413
0.019347 0.000073 0.007334
0.067268 0.009102 -0.002531
0.032403 0.002892 0.007403
0.003239 0.004628 -0.002193
-0.042102 0.003653 0.002430
-0.010601 0.013587 0.006668
-0.053966 -0.008776 -0.003806
0.052375 -0.012036 0.007186
0.018570 0.009106 0.000400
-0.024995 0.010989 -0.002264
-0.053928 -0.013204 -0.002151
-0.020226 0.009998 -0.004480
-0.045224 0.010871 -0.002943
-0.062721 0.013508 0.005755
-0.073293 -0.013992 -0.003685
-0.007495 -0.014725 0.006045
-0.029675 0.006622 0.005989
0.058696 -0.014806 -0.005155
0.065026 -0.009621 -0.002618
-0.010654 0.011660 -0.002889
0.065136 0.003173 0.001350
-0.030369 -0.002741 -0.006779
0.031121 -0.009989 -0.004128
-0.044299 0.012503 0.007203
-0.009324 0.000220 0.006888
0.027413 -0.002184 -0.002787
0.001137 0.004509 0.000770
-0.015354 0.003941 -0.001007
-0.002298 -0.013819 0.003395
0.038014 -0.008201 0.006968
-0.014926 -0.012688 -0.001269
-0.001419 -0.004095 0.007304
0.003541 -0.014343 -0.005934
0.016483 -0.005916 -0.006690
-0.058729 0.005308 0.000086
0.074912 0.001042 -0.003077
0.056766 -0.014948 0.006682
-0.017922 0.000638 -0.000624
-0.006457 -0.000434 -0.005311
-0.012710 -0.013978 -0.002075
0.009559 -0.010607 -0.005487
0.068153 0.004000 -0.003799
0.019585 -0.004000 0.007420
-0.056398 0.000585 0.000831
-0.055446 -0.006065 -0.007045
-0.061283 0.006947 0.005423
-0.074800 -0.011221 -0.002155
0.005771 -0.009757 0.004400
-0.022142 0.003942 0.003522
-0.045269 -0.011695 0.002668
0.037891 -0.005451 -0.006903
-0.065674 0.001956 -0.000508
-0.025996 0.012023 -0.002189
0.061770 0.006276 -0.006402
-0.042561 -0.013267 0.007275
0.068121 -0.004158 -0.002959
0.043725 -0.013822 -0.000485
0.056872 0.013589 0.000123
0.045528 0.010198 0.006427
0.044046 0.006764 -0.002407
0.070227 -0.006590 -0.006353
-0.071256 -0.010324 0.006593
0.012248 -0.006264 0.001415
-0.018245 -0.000453 -0.000402
0.001024 -0.004473 0.001006
0.027299 -0.013257 -0.000983
0.014906 -0.001977 -0.001210
0.040537 0.011087 -0.003019
-0.016777 0.012562 -0.005176
-0.035302 0.013519 0.007334
0.028193 0.008086 -0.007301
-0.036342 -0.014954 -0.002708
-0.022056 -0.008706 -0.001391
-0.004932 0.010397 -0.007469
0.010279 -0.006192 0.005336
0.005940 0.007298 0.006448
-0.043305 -0.006615 -0.005220
-0.048652 0.003771 0.006628
-0.003868 0.012495 0.005898
-0.062853 -0.002305 -0.005862
0.042605 0.002333 0.002979
-0.018257 0.004461 0.005871
-0.005566 0.004347 0.004144
-0.040888 -0.013552 -0.007170
0.072717 -0.007513 0.003421
-0.065095 0.014961 0.002069
0.027511 -0.010176 0.003162
-0.025076 0.007658 -0.006742
-0.056260 -0.003951 -0.001336
-0.007129 0.011875 0.002011
-0.015979 0.001926 0.001194
0.003854 0.007142 0.006185
-0.047818 0.009886 0.003382
0.061753 -0.008611 0.000494
0.052444 0.013909 -0.006117
-0.005777 0.002234 0.003346
0.019175 0.010866 0.000765
-0.033899 -0.011526 0.000982
-0.018650 0.012856 0.004426
-0.054198 -0.005982 -0.006429
0.025618 -0.008866 0.002217
0.070085 0.012261 -0.004483
0.008924 -0.013342 -0.004947
0.036049 0.003462 0.001238
0.035323 0.005601 0.005976
-0.031268 0.011461 -0.000709
0.053382 -0.000499 -0.003374
0.001363 -0.003373 0.001099
0.047337 -0.002139 -0.002327
-0.058732 -0.012893 0.003395
-0.016161 -0.004177 0.004255
-0.030600 0.000967 -0.004480
-0.039020 -0.004522 0.003322
-0.026110 0.010717 0.001981
-0.058349 -0.013675 0.004194
-0.015423 0.001998 -0.004801
-0.038271 -0.006259 0.006309
-0.006398 -0.012591 0.004085
0.060441 -0.013081 0.001515
-0.025691 -0.009748 -0.006802
0.038798 -0.004736 0.006432
-0.068321 -0.011616 -0.002087
0.019385 -0.012718 -0.000982
0.000094 -0.005385 0.006799
0.040702 0.002739 -0.001542
0.035906 0.010656 -0.003125
-0.025486 -0.013440 0.004469
0.011229 0.006851 0.003027
-0.073619 -0.003008 -0.005373
0.072868 -0.010072 0.005946
-0.052171 -0.005172 -0.001692
0.066555 -0.005072 -0.003151
-0.043426 0.000708 -0.005735
0.070497 0.004856 0.005598
-0.020432 0.001033 0.005080
0.069469 0.007948 -0.001195
-0.029626 0.005102 -0.006923
-0.051771 -0.009512 -0.006687
-0.051022 -0.005868 0.001536
-0.052177 -0.007034 0.004639
-0.041297 -0.008339 0.002969
-0.015666 0.002045 -0.001491
-0.030568 0.002700 0.003532
-0.072228 -0.002972 -0.004540
-0.031983 -0.011349 0.000829
0.049337 -0.007651 -0.003397
0.068152 -0.007932 -0.007026
-0.059164 -0.002572 -0.002420
-0.055978 0.001094 -0.002498
-0.047593 0.001132 0.003975
0.057278 0.010901 -0.004496
0.062217 0.014564 -0.000185
0.002995 0.001477 0.006724
0.030031 -0.012164 0.005702
0.015176 -0.007382 -0.003628
0.066049 -0.001976 -0.003623
0.016342 -0.002964 0.004664
-0.058777 0.011784 0.005222
0.061979 0.000480 -0.002247
-0.021701 0.010648 -0.007002
-0.041929 -0.014398 0.007145
-0.013671 -0.001932 0.006055
-0.050725 0.004853 -0.001266
0.023361 0.011751 0.007173
0.041000 -0.007271 0.001795
-0.044816 -0.014086 0.005363
-0.008366 0.011982 -0.003502
0.073801 0.001407 -0.003059
0.057805 -0.005108 -0.007188
0.042176 0.001111 0.004972
-0.062437 -0.001502 -0.006935
-0.001906 -0.010944 -0.006672
0.014359 0.002518 0.005695
0.061314 -0.008776 -0.000805
0.047291 -0.002903 0.000859
-0.055053 0.008040 0.003023
-0.030673 -0.010419 0.001612
0.029398 0.008877 -0.002504
0.070102 -0.002386 0.005230
-0.017081 0.002112 -0.003408
