ply
format ascii 1.0
element vertex 1681
property float x
property float y
property float z
end_header
-0.096290 0.013563 0.005757
-0.033284 0.011238 -0.001517
-0.061644 0.018083 -0.003479
-0.059641 0.026138 -0.004804
-0.086100 0.030409 0.004761
0.062574 0.011241 0.005698
-0.056228 -0.003487 0.000910
0.057510 0.002420 0.002144
-0.005402 0.009894 -0.002310
0.074005 -0.003951 -0.000949
-0.085587 0.002690 -0.005885
0.048608 0.034284 0.004761
0.007227 -0.024558 0.001098
-0.086323 -0.023050 -0.004303
-0.096543 -0.005187 0.002339
-0.083755 0.006881 -0.005733
0.026032 -0.021143 -0.002967
-0.025805 0.033740 -0.000933
-0.058811 0.028166 0.004774
-0.033351 -0.002211 0.003482
0.025735 0.007327 0.000709
-0.090631 0.000867 0.005946
0.053099 -0.006369 0.004093
0.046233 -0.026138 0.005976
-0.031551 -0.021166 -0.002275
0.053639 0.021718 -0.004144
-0.063863 -0.021712 0.000743
0.047862 0.033616 -0.000526
-0.018999 0.023582 -0.005406
-0.076352 0.031118 0.004487
-0.047664 0.019584 0.004685
-0.012608 -0.002256 -0.005298
-0.073123 -0.028633 -0.003170
-0.020290 0.027101 0.005184
0.002434 0.008924 -0.003838
-0.038274 0.025728 0.005950
-0.090354 -0.004007 -0.001714
-0.069290 0.009997 0.003962
-0.044763 0.003197 -0.001079
-0.092054 0.034820 -0.001198
-0.097697 -0.023177 0.001415
-0.024534 0.034222 -0.004488
-0.011411 0.030925 0.002115
-0.012778 0.006389 0.000031
0.000312 0.011375 0.000633
0.089251 0.025289 -0.003546
-0.095356 -0.031757 -0.004193
0.058773 0.019008 0.003515
0.004737 -0.013935 0.004400
-0.034795 -0.011005 -0.001699
-0.054407 -0.025890 -0.000830
-0.018762 0.017276 -0.000053
0.003648 0.017138 0.003388
-0.092765 -0.026994 -0.004046
-0.066823 0.021609 -0.004043
0.093482 -0.024132 -0.000044
-0.083070 0.018970 -0.001732
-0.086225 0.008996 0.003453
-0.048698 -0.018860 -0.003915
0.067887 -0.010219 -0.003707
0.074568 -0.005836 0.003800
-0.015140 -0.016014 -0.001469
0.059030 0.006270 0.001129
-0.032134 0.019661 0.003480
-0.080917 0.004615 -0.004064
-0.034610 0.005695 0.005299
-0.092673 -0.030774 0.001646
0.080578 -0.006279 0.002749
-0.041465 -0.007249 -0.005562
-0.067367 -0.024099 -0.005134
-0.094000 0.026338 -0.003653
-0.041178 -0.019631 -0.004501
-0.087009 0.013941 -0.000827
0.074429 -0.018712 -0.004102
0.077139 0.028552 -0.004349
-0.051695 -0.023436 -0.005942
0.036553 0.030440 -0.000525
-0.014399 0.002843 0.003068
-0.059151 -0.018445 0.000743
0.001001 -0.012337 0.002582
0.058447 0.009166 -0.001632
0.090304 -0.005721 0.005133
0.065483 -0.026871 -0.001268
0.061482 0.016806 -0.001910
-0.084304 0.017044 -0.002016
-0.097257 0.003376 -0.002765
0.081976 0.031396 -0.004510
0.043444 0.030735 0.003981
-0.025390 0.007649 0.000348
-0.019772 0.001014 0.003035
-0.030986 -0.018185 0.002042
0.044299 -0.012860 0.002109
-0.008949 -0.034552 0.005537
0.077631 0.004055 -0.005144
-0.031014 0.010718 0.001983
-0.000288 -0.005284 -0.003322
-0.016790 -0.011285 0.000580
-0.086802 0.005165 0.003002
-0.067535 0.029197 -0.002486
-0.085529 0.029947 -0.002689
-0.057694 0.014525 0.000435
0.006437 0.017538 -0.004868
-0.098039 -0.020693 -0.005930
0.038245 -0.013548 0.004495
0.036975 -0.005085 0.005132
0.015666 -0.010678 0.004064
0.064249 -0.029913 -0.000466
-0.029209 0.014859 0.002127
0.062342 -0.006606 0.000422
-0.040837 0.020071 0.001402
0.057547 0.010477 0.002141
-0.066419 -0.030832 -0.004224
0.098551 0.018450 0.003577
0.004797 -0.023997 -0.005462
0.067873 -0.026231 -0.002341
-0.093459 0.009997 0.001958
-0.045915 0.018144 0.005212
-0.079525 0.021296 0.003153
-0.051451 -0.015191 -0.000559
-0.066276 -0.012787 0.005272
0.058701 0.005982 0.000827
0.044267 -0.024594 0.001688
0.067570 0.014643 0.005193
-0.025130 -0.034353 0.000357
-0.048960 -0.009519 -0.000240
-0.071214 0.013526 -0.002536
0.098725 -0.024380 -0.004715
0.076764 -0.034095 0.001743
-0.094541 -0.012431 -0.005375
-0.054661 0.032969 0.003348
0.037927 0.008499 0.002241
-0.004617 0.022807 -0.001407
0.036211 -0.003422 -0.003457
-0.086456 0.010835 -0.000638
0.008903 -0.000232 0.004112
-0.000851 0.016096 -0.004179
0.039348 -0.000719 0.004364
0.072016 0.034577 0.001329
-0.041084 -0.022012 -0.003767
0.078874 -0.005350 -0.001463
0.038966 -0.011593 0.000847
0.075674 -0.031107 -0.004247
0.060818 -0.013283 -0.002686
0.049490 0.028246 0.005351
-0.059999 0.030428 0.001309
0.032018 0.007670 0.003218
-0.097741 -0.010224 -0.002668
-0.023581 -0.034154 -0.000185
-0.097558 -0.006733 -0.001837
-0.029428 -0.022901 -0.001905
-0.004197 -0.025821 -0.001496
0.002492 -0.009560 -0.001450
0.020402 0.013838 0.001058
-0.071886 -0.001996 0.000274
0.075761 -0.010945 -0.002018
0.042505 -0.007131 -0.003093
0.030087 -0.003628 0.003927
-0.058423 -0.018976 0.003618
0.033246 -0.010160 0.000926
-0.035825 -0.000226 0.003178
-0.082678 0.007620 -0.000163
-0.097475 -0.013882 0.005212
0.033319 0.007886 0.004305
-0.046377 0.025406 0.000320
-0.095853 -0.012756 -0.005805
-0.035943 -0.019806 -0.000491
0.057791 0.008846 0.000789
0.018193 -0.012629 -0.002285
-0.061144 -0.028798 -0.005722
0.082057 0.000133 0.000499
-0.064211 -0.029744 -0.000992
0.032803 0.034077 0.000325
-0.020593 0.002555 -0.005089
-0.019134 0.012685 0.003410
-0.081393 -0.025036 -0.001706
0.079882 -0.027556 0.003363
0.072550 -0.005392 -0.002282
0.093644 -0.032135 -0.004561
-0.005146 0.026104 -0.004680
0.099712 -0.021858 0.001970
0.058205 -0.028247 0.005251
0.049800 -0.010295 -0.003883
0.055322 0.004309 0.005445
-0.080972 0.005680 0.005198
-0.047277 0.006680 -0.001160
0.075542 0.014227 -0.001759
0.030368 0.023948 -0.003804
-0.024915 -0.020347 -0.001847
0.037679 0.028526 0.005715
0.048523 -0.016099 -0.004684
-0.026212 0.028874 -0.000046
-0.062515 -0.005799 -0.001451
-0.068217 0.028057 -0.000667
0.094003 0.024240 0.003910
0.080698 -0.022041 -0.005144
-0.046085 0.021881 0.005672
0.095472 -0.008796 -0.000299
-0.080005 0.009521 0.002232
0.088510 -0.005622 -0.002906
-0.006987 0.019262 -0.002169
0.070499 -0.026987 -0.003589
0.009035 -0.010979 0.005642
0.011946 0.002960 0.003513
0.036555 0.032750 -0.004442
-0.087268 -0.005698 -0.003272
0.092781 -0.026252 0.003398
-0.008641 0.027731 -0.005978
0.035941 0.002763 -0.003806
0.044893 -0.032612 -0.002556
0.004942 -0.034629 -0.001588
-0.013484 0.034324 0.000904
-0.052967 0.005350 0.002418
0.057964 -0.014004 -0.004281
0.009330 0.034480 0.002719
-0.010548 0.014899 0.002500
-0.091087 0.033916 -0.001300
-0.072705 -0.018241 0.005602
0.050215 0.032546 -0.000091
0.045460 -0.005811 -0.000276
-0.090342 0.002737 0.001342
-0.029453 0.024671 -0.002862
0.037124 0.015424 0.000047
-0.063752 -0.013853 -0.005356
-0.081979 -0.010140 0.004685
0.011345 -0.033612 -0.001636
0.000280 -0.011984 0.000457
0.083457 0.008267 0.001544
0.093648 0.002585 0.002374
0.072436 0.013858 -0.000516
-0.092410 0.034642 0.001831
0.072182 0.033233 -0.005804
0.026218 -0.027616 0.000606
0.087909 0.003851 0.000148
0.054322 0.000330 0.004311
-0.063707 0.028245 -0.001945
0.087484 0.010137 0.001470
0.061366 -0.028354 -0.005247
-0.048551 -0.013112 0.004431
-0.042885 0.021459 -0.005445
0.019892 0.013012 -0.000515
0.071628 -0.012921 0.002016
0.085890 -0.023103 -0.002941
-0.006440 0.010147 -0.001723
-0.010897 -0.016677 -0.001453
0.043255 -0.031991 0.001632
-0.019589 -0.026974 -0.000290
0.025154 0.033538 -0.000783
0.054195 0.012986 0.005285
0.002932 0.013685 0.002532
0.087395 -0.031116 0.005170
-0.063109 0.025827 -0.000295
0.005691 -0.021486 0.000490
0.044301 0.034982 -0.003487
0.094991 -0.024074 -0.002625
-0.096171 -0.011013 -0.000458
0.090623 -0.030125 0.001634
0.039269 -0.017303 -0.004735
0.082003 0.015519 -0.004898
-0.089294 0.030626 0.002344
-0.036934 0.024602 0.005325
0.059067 -0.015927 0.004048
-0.024324 0.007897 -0.002328
0.037952 -0.017984 0.001522
-0.052255 -0.006121 0.001790
0.036251 0.015237 -0.003298
-0.053838 -0.010844 -0.003033
0.049517 0.011010 0.005409
0.074967 -0.000973 0.001203
-0.023656 0.013680 -0.003701
-0.039539 -0.008427 -0.001388
0.081947 -0.025047 0.005121
0.097534 0.003045 -0.005208
0.068047 -0.000366 -0.004135
0.072794 -0.014818 -0.000394
-0.064721 0.004924 -0.004373
-0.011958 -0.021280 -0.000288
0.060948 -0.018092 0.004813
-0.029921 0.023217 0.005783
0.063529 -0.025131 -0.003955
-0.026657 0.016841 -0.005250
-0.027470 -0.004651 -0.002522
-0.039153 0.003216 -0.004365
-0.014943 0.022275 -0.003529
0.094582 -0.007549 -0.001197
-0.005781 0.010658 0.002572
0.082016 0.008175 -0.004006
0.058884 0.023837 -0.001307
-0.038479 0.028382 -0.001132
-0.066227 -0.016267 0.000607
-0.012474 0.009560 -0.002493
-0.017631 -0.031394 -0.000350
-0.084166 -0.033625 0.002640
0.054392 0.024160 -0.004733
-0.026361 0.023299 0.002436
0.022085 0.017058 0.003767
0.064534 -0.010554 -0.000310
-0.017903 -0.000027 0.003868
-0.079426 0.022046 0.005804
-0.047220 0.002123 0.005431
-0.060152 -0.025419 0.000807
0.096198 -0.021236 -0.003833
0.006245 0.022127 -0.000890
-0.004684 -0.026822 -0.002189
0.006784 0.012370 -0.003205
0.020845 -0.018986 0.000913
0.063924 0.032902 0.001513
0.045011 0.006696 -0.004456
0.069340 -0.016675 0.005345
-0.054623 0.012074 -0.003448
0.025643 0.009882 0.003313
0.006832 -0.007491 0.004673
-0.033875 0.032193 -0.005571
0.047640 0.001550 0.000375
-0.029876 0.019947 -0.001662
-0.087492 -0.029727 0.003598
0.099401 -0.011564 0.004397
-0.063235 -0.015553 -0.000137
0.017979 0.008219 -0.004241
-0.027055 -0.034434 -0.005201
0.068689 -0.032105 0.003407
0.001646 -0.016172 -0.001568
-0.012644 0.020579 0.004332
0.001665 0.017780 -0.005473
0.010857 0.013706 -0.002071
-0.075140 0.021679 -0.004751
-0.047814 -0.029000 -0.002624
0.054418 0.028406 0.002302
0.006156 0.003785 -0.001167
0.092640 0.003526 -0.005086
-0.018845 -0.008490 0.005860
0.099643 0.022225 -0.004580
0.053371 -0.008045 -0.004497
-0.062603 0.020289 -0.003205
0.090943 0.005363 0.001624
0.064084 -0.029481 0.005214
0.040273 -0.029188 -0.004712
-0.032279 -0.011869 0.005109
0.083478 -0.020762 0.000974
0.073382 0.027162 -0.001700
-0.006329 -0.012486 0.004976
0.046571 0.006212 0.005099
-0.004174 -0.029595 0.005682
-0.092645 -0.031829 -0.000762
-0.012586 0.031514 -0.001237
0.070893 -0.023818 0.000049
0.092971 0.022208 0.003240
-0.030927 -0.009514 0.003082
0.091024 0.028849 0.000938
0.072973 -0.026074 -0.001565
0.012564 -0.012014 0.005113
-0.066450 0.023231 0.004396
0.026862 -0.007079 -0.001945
-0.087262 -0.029081 -0.005042
-0.058423 -0.031405 0.001193
-0.092005 0.022164 -0.000078
-0.072614 0.022181 -0.004216
0.002088 -0.020918 -0.001078
-0.096558 0.006352 -0.005538
-0.003553 -0.016298 -0.005597
0.032244 0.020325 -0.000060
0.085837 0.004272 -0.004306
0.084336 0.031246 -0.005615
0.017019 -0.025047 0.002650
-0.013981 0.034064 -0.001617
0.008700 0.010816 0.002663
0.073242 0.021081 0.004501
0.098430 0.014657 -0.002282
0.015572 -0.032258 0.002269
-0.093680 0.031155 0.003453
0.064874 -0.012450 0.003728
-0.080620 0.025635 -0.001117
0.098491 0.032882 -0.004168
0.095811 -0.024739 0.006000
0.087741 0.030408 0.003868
-0.067739 0.018704 -0.004129
-0.096805 -0.025605 0.004322
0.047084 0.034137 -0.001590
-0.053473 -0.006714 0.003480
-0.017177 0.022305 0.000258
-0.016344 0.032201 0.004976
-0.048707 -0.003146 0.002373
-0.041183 -0.017129 0.001606
0.088309 -0.015246 0.002880
-0.060499 0.004780 0.002369
0.054326 0.030578 -0.003951
-0.093693 0.005931 0.005593
0.034915 -0.025327 0.003363
-0.005094 0.012250 -0.005907
-0.099899 0.001529 -0.004982
-0.031248 0.026004 -0.005549
0.016437 0.004118 0.000552
-0.038725 0.006835 -0.004929
0.009189 0.000605 -0.002253
-0.056155 -0.032561 0.000984
-0.085678 0.003035 -0.000579
-0.009384 0.016752 0.002249
0.020713 0.017317 0.005918
-0.062824 0.031295 0.005454
-0.047343 -0.013205 0.001964
0.033932 -0.018457 -0.003116
0.071592 -0.017709 -0.000989
0.075402 0.000335 -0.004395
-0.088901 0.029389 -0.001244
0.060986 0.013197 0.004354
0.008122 0.007609 0.003349
0.017482 0.009442 0.000112
0.049484 0.007524 -0.003057
-0.089150 0.006161 0.005007
-0.028998 -0.022078 -0.003240
-0.026835 0.012418 0.005096
-0.096624 0.022306 -0.002441
0.024341 -0.014401 0.003159
-0.082624 0.021731 0.003272
-0.095358 0.021045 -0.000901
-0.006050 -0.032711 0.005885
0.022341 -0.002712 -0.003056
0.026648 0.031239 0.005959
-0.053990 0.014055 -0.003722
-0.031300 0.025739 -0.005345
-0.059526 -0.021449 -0.000830
-0.044948 -0.004979 -0.000884
0.090105 -0.001386 -0.004282
-0.014515 -0.001767 -0.004653
-0.046016 0.012826 0.005421
-0.038030 0.002984 0.004868
-0.098974 0.020003 0.001726
-0.040599 0.029743 0.001376
0.032888 -0.019474 0.005949
0.036715 -0.001301 0.005643
0.020988 0.009233 -0.001716
0.077902 -0.026047 -0.002980
-0.045833 -0.002687 0.004016
0.090958 -0.024890 0.002800
-0.035377 0.025857 0.000787
0.037924 0.031936 -0.002650
0.095966 0.033033 -0.000488
0.056231 0.033222 -0.000477
-0.079666 -0.028902 0.001311
-0.021596 0.034909 0.004028
-0.066669 0.034853 0.001025
0.075581 -0.024528 0.005511
-0.088464 -0.013543 0.005567
-0.064916 0.023635 0.001490
0.082179 0.026087 -0.004964
-0.087104 -0.016695 0.001657
0.050278 -0.029156 -0.005906
-0.032867 0.004063 0.002839
-0.018768 0.030693 -0.000894
-0.077670 0.020233 0.003125
-0.066570 0.008382 0.005915
-0.091735 -0.023422 -0.005184
-0.040974 0.004600 0.002301
0.058486 -0.001475 -0.005957
-0.087734 -0.034576 -0.005831
-0.019959 -0.027501 -0.002390
-0.004306 -0.034213 0.000600
-0.020106 0.030615 0.004644
-0.033186 0.017945 -0.001533
-0.042103 0.013871 0.003909
-0.031687 -0.034074 -0.000772
0.098282 0.016824 0.004751
0.014961 -0.002025 0.004619
0.056436 -0.017476 -0.000086
-0.079990 0.031090 0.000531
-0.050479 -0.034023 0.003506
0.063262 -0.026880 0.001683
-0.026806 -0.007424 0.000803
-0.028353 0.021665 0.002187
0.004174 -0.008117 0.002967
0.066186 0.011024 -0.000799
0.006585 -0.021336 0.003497
0.055215 -0.001944 -0.005027
0.067115 0.031024 -0.001456
-0.096522 0.012883 -0.002820
-0.091501 -0.031202 0.004887
0.014618 0.033038 -0.004007
0.047212 -0.027848 0.003357
-0.085916 0.032252 0.001047
0.089809 -0.003934 0.002938
-0.043424 0.007144 -0.002378
-0.016935 0.015755 -0.003028
0.097876 0.031394 0.002197
0.031653 -0.009448 -0.005371
0.024632 -0.004386 0.003573
-0.084267 0.000480 0.004711
-0.007683 0.034819 -0.004362
-0.003946 -0.015509 -0.002145
0.012439 -0.015013 0.000019
-0.037673 -0.010422 -0.003942
0.070667 0.018497 0.002142
0.070473 -0.008238 -0.003385
-0.016315 -0.005537 0.002436
-0.055445 -0.030504 0.002313
-0.058131 0.024706 0.001029
-0.037005 0.010194 -0.003745
0.082684 0.006513 -0.001737
0.084648 0.022367 0.001390
0.077627 -0.009254 0.001375
0.035271 0.017952 0.000486
-0.079045 -0.001828 -0.000895
-0.066129 0.001900 -0.002504
0.041695 -0.033203 0.005427
-0.010578 -0.016409 0.000411
0.058017 0.016062 0.003633
0.038415 0.003133 0.001231
-0.041338 -0.024172 -0.005165
-0.091161 -0.034546 -0.003214
-0.007458 -0.008698 -0.003606
-0.006423 0.005065 0.005296
0.069054 0.009346 0.002275
0.015410 0.034255 0.000060
0.026176 0.019438 0.005251
0.072062 -0.004343 0.003196
-0.054307 0.017961 0.005552
-0.061831 0.025482 -0.005147
0.024007 0.009242 0.003527
-0.059383 -0.033906 -0.001260
-0.093001 -0.033746 -0.000167
-0.003583 -0.026403 0.001651
-0.034974 0.034578 0.003755
-0.028757 0.018097 -0.003525
0.066727 0.010085 -0.005067
-0.029420 0.016257 -0.004492
-0.023464 -0.013003 -0.001536
-0.030203 0.002188 -0.000761
0.084293 -0.018167 -0.002864
-0.068742 0.030047 -0.004338
0.001753 0.002996 0.005985
-0.078401 0.013203 0.005090
0.084984 0.020603 0.004882
-0.046562 0.018602 -0.000397
-0.098905 -0.029850 -0.000613
0.089015 -0.032095 0.005961
0.058540 0.018853 -0.003418
0.004624 -0.011876 -0.000178
-0.033512 0.028921 -0.003081
0.018232 -0.010877 -0.001813
-0.096772 -0.031735 -0.002225
-0.057839 0.007771 -0.004761
-0.008322 -0.019755 0.005266
0.080439 -0.015821 -0.004411
-0.036691 -0.010202 -0.005256
0.090151 0.020688 0.002879
-0.002016 -0.022888 -0.002638
0.044797 0.002893 -0.005064
0.057537 -0.020827 -0.000534
0.077566 -0.002229 -0.003572
0.050711 -0.031659 -0.001469
0.004203 -0.002956 -0.001464
0.028438 0.014316 -0.004059
0.029063 0.010355 -0.001398
0.039358 -0.008170 0.000830
0.052296 -0.031118 -0.000598
-0.096003 0.013534 0.002237
-0.048028 0.026023 -0.004572
-0.060453 -0.002031 0.005402
0.006885 -0.034168 0.000446
0.048505 0.026851 0.002135
0.067460 -0.016854 0.002782
-0.069075 -0.027219 -0.003863
-0.002197 0.016988 -0.003942
-0.017985 -0.021475 -0.001498
-0.005904 0.030305 0.003235
-0.067367 0.017335 -0.000883
0.032032 -0.029848 0.003980
-0.091115 -0.032884 0.004288
0.076373 -0.027572 -0.002796
-0.015936 0.021934 -0.001892
0.041033 -0.010735 0.002768
-0.005670 -0.024371 0.001958
-0.024694 0.005822 0.000773
0.015205 0.013818 -0.001093
0.082781 0.013498 0.003174
-0.041037 -0.030670 -0.005454
0.000711 -0.007739 0.002025
0.098608 -0.030571 -0.005724
0.076519 0.034568 -0.002800
-0.040705 -0.002456 0.002912
-0.073087 -0.010095 0.000621
-0.006745 0.019962 0.005266
-0.088319 -0.032176 -0.005151
0.001147 -0.011194 -0.004101
0.046433 -0.003209 0.003929
-0.027329 0.009763 -0.000716
-0.015370 0.013811 0.002245
-0.084375 0.025104 0.004244
0.085026 -0.005779 0.000287
0.051837 -0.017900 0.004319
0.028896 -0.026413 -0.002600
-0.054683 -0.004699 0.004359
-0.004564 -0.001564 0.002912
0.007765 -0.022089 0.000332
-0.086515 -0.020989 -0.005757
0.041558 0.019278 0.001764
0.023053 -0.005433 0.003226
0.094469 -0.001546 -0.004743
0.042496 0.016605 0.001909
-0.083173 0.010883 0.002001
-0.048750 -0.028072 -0.003061
0.088977 0.018654 -0.000287
0.002508 -0.014194 -0.000220
-0.081519 -0.029101 0.003695
-0.047283 -0.034185 -0.004412
0.030122 -0.012293 0.004561
-0.014433 -0.025005 0.002953
0.089918 0.028771 -0.004062
0.003281 0.015180 0.000828
-0.071069 -0.023622 0.002375
-0.047060 -0.008200 0.003921
-0.002623 -0.019997 0.004948
-0.023419 0.010808 -0.002604
0.035887 -0.011022 0.000416
0.028571 0.030341 -0.000879
0.076518 0.029677 -0.000907
-0.096609 0.025865 -0.004941
-0.022663 0.024359 -0.003178
0.017135 -0.002869 0.000714
-0.001047 0.011902 -0.001221
0.030208 0.017470 -0.005889
-0.046164 0.032539 0.005511
-0.068105 -0.005221 -0.001056
0.003325 -0.022022 -0.005035
0.088929 0.013823 0.005542
0.020335 -0.026591 0.004898
-0.000732 -0.002389 0.004437
0.031873 0.033194 0.004923
0.077726 -0.015215 -0.002010
0.016735 0.010458 -0.003974
0.094855 0.021963 0.001718
0.045261 0.030222 0.003080
0.058650 0.026697 -0.004954
-0.093790 -0.032996 0.000083
-0.058794 -0.000215 -0.001580
-0.050083 0.015067 -0.003874
0.072109 0.015009 0.000092
0.086822 0.020284 -0.003267
0.009667 -0.007307 0.000879
-0.062491 0.011242 -0.003724
0.069319 -0.012452 0.005614
-0.033016 0.019404 0.000037
0.093172 0.003762 -0.000931
-0.039170 0.023663 0.003308
0.084150 0.001928 0.003561
0.032005 0.008212 0.002857
0.026476 -0.032888 -0.005552
0.046645 0.034655 0.001508
0.064414 0.011000 0.003549
0.078177 -0.020645 -0.004193
0.035803 -0.023529 0.004999
-0.069685 0.016135 -0.000318
-0.049126 0.022796 -0.005232
-0.002064 0.028718 -0.003739
0.009185 -0.023906 0.003613
-0.067937 -0.025199 -0.004598
-0.028332 0.034063 0.000372
-0.004900 -0.010788 -0.004027
-0.024761 0.022302 0.002970
0.055998 -0.033152 0.004007
-0.013074 -0.029683 -0.001751
-0.030353 -0.005676 0.000287
-0.061070 0.027537 -0.001454
0.042472 -0.000121 0.005845
-0.045912 -0.000677 -0.000103
-0.005795 0.015342 -0.004049
0.017935 0.018163 0.004446
0.026627 0.009737 -0.002882
0.035393 -0.026088 0.000310
0.050766 0.011475 0.001523
0.015240 -0.007071 0.004135
-0.027367 0.032727 -0.001803
-0.039804 0.028404 -0.003720
0.027968 -0.015420 0.001530
0.008762 0.012651 0.001363
0.093087 0.010228 -0.004561
0.038658 -0.032097 -0.001893
0.010644 -0.021388 0.005662
0.001362 -0.032018 0.003734
0.051536 0.001578 -0.001905
-0.060894 -0.003978 0.002258
0.009689 -0.014006 0.005269
-0.020951 -0.013508 0.001945
0.018921 0.016593 -0.002490
0.098596 -0.025428 -0.001998
-0.072333 0.009025 -0.000143
-0.000593 0.008908 -0.002076
0.077745 -0.031454 -0.004122
-0.042403 0.007223 0.003193
0.092258 0.008115 0.004265
0.081364 -0.013038 -0.000169
0.086459 0.027045 -0.005523
0.041301 0.005471 -0.003956
0.065920 0.027107 0.004758
-0.059856 -0.006132 0.004733
-0.022333 0.003537 0.001063
-0.097166 0.016109 -0.000234
-0.020982 -0.029235 0.001903
-0.073346 -0.008587 0.005117
0.029198 -0.034797 -0.001039
-0.088328 -0.030110 0.003208
-0.027791 0.023872 -0.000297
-0.056899 0.030502 0.002375
-0.036194 0.006844 0.000869
0.080345 -0.033393 -0.005353
-0.056405 0.028329 0.000962
0.024718 0.033786 -0.004471
-0.072581 0.025081 -0.003332
0.064783 0.010851 -0.005061
-0.098656 -0.019836 -0.000110
-0.055792 -0.019069 -0.000040
-0.071143 -0.017153 -0.000620
0.055879 0.019664 -0.005443
-0.011121 0.016873 0.003599
0.057160 -0.024752 -0.001101
-0.065931 0.000944 -0.001260
-0.091435 0.023141 -0.003707
-0.090354 0.028508 -0.005351
-0.074689 -0.006336 -0.001275
0.089280 -0.013071 0.004023
0.041369 -0.014717 0.002061
0.093473 0.017931 0.000139
0.037993 -0.029168 -0.004834
0.025743 0.030554 0.003088
-0.052556 -0.017400 -0.001537
-0.087531 -0.023195 0.005218
0.047504 0.024651 0.004222
-0.080478 0.025042 -0.001023
0.085303 -0.027038 -0.001729
-0.004980 -0.011828 -0.005771
0.034369 -0.028139 -0.003534
0.066888 -0.012931 0.002216
0.036339 0.001044 -0.000398
0.071810 0.024680 -0.004415
-0.089792 0.002141 -0.001817
0.042747 -0.012689 -0.000579
-0.090105 -0.019479 0.005679
-0.003334 0.007142 0.004249
0.093587 0.010494 -0.005214
-0.087292 -0.021552 -0.001650
-0.071129 0.033199 -0.005439
0.072758 -0.018738 -0.004813
-0.006154 -0.005520 -0.004256
0.089946 -0.002643 0.000657
0.096885 0.015142 -0.002666
-0.020724 -0.021233 -0.000585
0.079632 -0.022214 -0.000662
0.098678 0.006631 0.002631
-0.039373 0.000447 0.001205
-0.094599 -0.030093 0.004585
0.042525 -0.003504 -0.002951
0.019723 0.021319 -0.002186
-0.027335 0.016734 0.002097
-0.032964 0.005499 -0.004548
0.017003 0.019455 -0.003205
0.053354 -0.026496 0.002113
0.096884 -0.016833 -0.002280
0.035384 -0.031219 0.000798
0.016933 0.034952 0.001250
-0.073711 -0.029642 -0.002120
0.076358 0.023056 0.005169
0.043098 -0.002551 -0.000372
-0.083412 -0.013211 0.001679
0.068727 0.012606 0.003794
0.009398 -0.012483 0.005039
-0.032108 0.006616 0.001321
0.056958 0.016076 -0.004937
0.017359 -0.012462 0.001785
-0.064013 0.011128 -0.002987
0.015711 0.023186 0.005675
-0.067531 0.000556 -0.004381
-0.012636 -0.006386 -0.000464
0.004184 -0.028675 0.004724
-0.072739 -0.013570 0.001887
0.035925 0.032910 -0.004224
-0.078474 0.018514 0.000168
-0.093774 -0.015575 0.001497
-0.061395 -0.030615 0.003646
-0.099204 -0.022702 0.002191
-0.061755 -0.023298 -0.003036
-0.011716 -0.025843 0.001775
-0.040725 -0.001789 0.004584
-0.089002 0.003411 0.003764
-0.048701 -0.005293 0.004029
0.001154 -0.012182 0.004035
0.024982 -0.005665 0.001470
-0.039647 -0.027955 0.004565
0.002654 -0.001146 -0.001554
-0.060743 -0.034423 0.002085
0.064548 0.023666 -0.002207
-0.064695 -0.004710 -0.001012
-0.038900 -0.029198 -0.000900
-0.067922 -0.034035 0.001414
0.028375 -0.021032 -0.004733
0.091048 0.020423 0.001287
0.021219 -0.001669 0.000826
0.058343 0.005864 -0.001698
0.059267 -0.029934 0.002590
-0.027714 -0.004477 -0.000255
0.014114 -0.007470 -0.000054
0.005874 -0.001360 0.005348
-0.019789 -0.022139 -0.005079
0.054294 -0.014343 0.003140
-0.051642 -0.026772 0.003683
-0.047624 -0.016818 0.005586
-0.028400 0.008121 0.003144
0.046041 -0.001275 0.000648
0.052982 -0.001292 -0.000865
-0.094620 -0.001087 0.004492
-0.000779 -0.028975 0.000317
-0.027876 -0.018508 0.002109
-0.026755 0.002649 -0.002026
-0.088192 -0.024304 -0.002729
-0.008561 -0.026025 -0.001031
0.099626 0.031401 0.005706
0.041723 -0.018079 0.001636
-0.058271 -0.014589 0.003105
-0.042142 0.001147 0.002009
-0.066745 -0.020518 0.002725
0.092835 -0.004363 0.004818
-0.000670 -0.000832 0.004168
-0.095372 -0.014523 0.001732
-0.047715 0.013501 0.005462
-0.067786 -0.006521 -0.005503
0.045683 0.015765 0.000352
-0.057181 0.023812 -0.005211
0.067782 0.019847 0.003936
0.080030 -0.006626 0.003918
-0.091102 -0.006521 -0.002920
-0.051704 -0.024636 0.005102
0.049316 0.032233 -0.005563
-0.080011 0.028996 -0.001506
0.017758 -0.006843 -0.003362
-0.020124 0.000222 0.002204
0.007442 0.034928 0.001230
0.006730 0.003403 -0.001937
-0.093648 0.017549 0.001624
-0.093813 -0.011953 0.005014
0.063364 0.011673 -0.003929
0.081148 -0.011394 0.000411
-0.072055 0.028428 0.001302
-0.001149 -0.016324 -0.003636
-0.061186 0.030513 -0.005357
-0.056511 0.033989 -0.004594
-0.070442 -0.021190 -0.005138
0.097534 -0.024746 -0.001339
0.055948 0.010470 0.001930
0.007322 -0.018217 0.003801
0.049775 0.000296 0.003671
0.064356 0.018964 -0.005597
0.021239 -0.006514 -0.002506
0.035685 -0.025492 -0.003770
0.008775 0.009108 0.004528
0.091387 -0.015568 0.003800
0.020032 0.022535 0.005158
0.071427 -0.006420 -0.002563
-0.096260 -0.008273 0.005141
-0.069443 -0.009117 0.003579
0.099253 0.016251 0.002479
0.058143 0.020674 -0.003990
0.051493 0.006425 0.004955
-0.049798 0.000034 -0.004545
0.005996 -0.022277 -0.001949
-0.027940 -0.031119 0.000435
0.002301 0.006754 -0.004396
0.028205 0.015276 -0.000211
0.096282 -0.024555 -0.005179
-0.049299 0.028905 -0.001831
0.008951 -0.022147 0.004453
-0.069710 -0.022622 -0.003101
-0.066625 0.005812 0.005874
0.072557 -0.027226 0.005709
-0.089913 -0.026815 0.000373
-0.016952 0.002860 -0.003808
0.072956 0.004578 -0.004324
-0.015868 0.027728 -0.005989
0.098152 -0.001714 0.001055
0.025569 -0.003470 0.000803
-0.086922 0.026360 -0.005500
0.073313 -0.009892 0.002447
-0.017290 -0.010102 -0.004042
-0.069293 -0.018314 0.004329
-0.003135 0.027337 -0.003696
-0.011066 0.013492 -0.002517
-0.026336 0.026161 -0.003091
-0.042245 0.005357 0.001503
0.044201 0.017011 -0.005818
-0.020990 -0.001784 0.005649
0.081531 0.012363 0.003395
-0.054151 0.004963 -0.005146
-0.002066 -0.025662 0.004726
-0.053770 -0.014936 -0.003098
-0.081037 -0.032230 0.003984
0.011213 0.012831 0.004509
-0.094251 -0.020897 0.001716
-0.070257 -0.018067 -0.003106
0.024462 -0.011561 -0.001895
-0.090532 -0.013676 -0.004867
0.078417 0.025050 -0.002242
0.065540 -0.027743 0.002677
0.015551 -0.025835 0.005810
0.093367 0.022942 0.000165
-0.027961 0.027839 0.003726
-0.033515 0.014376 -0.004660
-0.020540 0.022718 -0.004290
-0.023417 -0.021223 0.005907
0.039808 0.027324 -0.003915
0.027975 0.014567 -0.004012
-0.093297 0.027670 -0.004993
-0.075531 0.000521 0.003630
0.003597 -0.019541 -0.003296
0.002874 0.011766 -0.003202
0.092129 -0.004168 -0.002615
-0.062455 0.034698 0.001895
-0.095526 0.009857 -0.004652
0.089656 0.005843 0.001162
0.067138 0.018749 -0.003450
0.066419 0.025030 0.005291
0.006516 -0.001075 -0.000599
0.054048 0.009507 0.000257
0.015487 -0.010090 -0.005357
0.017122 0.020881 -0.000886
0.059113 0.016358 0.005623
-0.005001 0.023605 0.002332
-0.057537 -0.016764 0.004094
-0.049923 0.001626 -0.003105
-0.049126 -0.013815 -0.003051
0.035746 0.003980 -0.000408
0.054362 0.000029 -0.003511
0.084059 0.030834 0.004045
-0.034905 0.031152 0.000669
-0.042411 0.011528 -0.005584
-0.054174 -0.028093 -0.004437
0.018075 -0.022634 -0.002835
-0.014139 0.001871 0.004142
0.025081 0.026540 0.003650
-0.019697 -0.007881 -0.000899
0.046502 0.001850 -0.002329
0.035769 -0.027710 0.005797
-0.090875 0.006935 0.005307
0.096567 0.018125 -0.003404
-0.060523 0.027935 -0.000766
0.004510 -0.015238 0.002789
0.080522 -0.014032 -0.001069
-0.047360 -0.019001 0.001478
0.047194 0.034871 0.003615
-0.045588 -0.009825 -0.002775
-0.092344 0.000937 0.003447
-0.019669 0.031846 0.002394
0.058329 -0.014360 0.004087
-0.044019 0.004930 -0.000922
-0.033239 -0.029984 -0.003103
0.060510 0.030912 0.001800
-0.073935 -0.006516 0.005173
-0.038075 -0.018171 0.002374
0.070461 -0.014543 -0.001159
-0.076466 -0.005845 -0.005666
0.025391 -0.025751 -0.001319
0.062970 0.009644 -0.005358
-0.035535 0.027326 0.004252
0.019236 -0.006402 0.003719
-0.011248 0.024887 -0.000384
0.018297 0.017711 -0.000969
-0.000586 0.030761 -0.005773
-0.031420 0.034482 0.003093
-0.090063 0.000179 0.003789
0.050248 0.010994 0.003604
-0.072122 -0.020290 0.000986
0.011735 -0.004157 0.003086
-0.095227 0.018543 -0.004176
-0.056728 -0.029300 -0.001233
0.002085 -0.000333 0.002734
0.060564 -0.021968 0.004147
0.029935 -0.003596 -0.001093
-0.005268 -0.011387 -0.002716
0.095051 0.033521 -0.001615
-0.025531 0.019649 -0.002092
0.022945 -0.009630 0.000221
0.061625 0.023737 0.005380
0.088899 0.020392 0.004874
0.073367 0.006292 0.002405
0.087682 0.028283 -0.003347
-0.054927 -0.016647 -0.004634
0.062064 -0.022361 0.005777
0.004039 -0.010552 -0.005132
0.068460 0.006273 0.002863
-0.007354 -0.000726 -0.003042
-0.095088 -0.034818 -0.003941
0.066701 0.011815 0.003831
-0.044178 0.003815 0.000386
0.083834 -0.015565 0.002618
0.015424 -0.002978 0.003573
-0.019838 0.009117 -0.004671
0.027490 -0.007402 -0.005949
0.010832 -0.017880 0.002053
0.080892 -0.031675 0.005290
-0.039692 -0.030578 0.001166
-0.010963 0.012348 0.005705
-0.084274 -0.034162 0.001939
-0.060748 0.006482 0.005304
-0.022587 -0.012079 -0.001225
0.060894 0.021785 -0.000616
-0.037168 -0.033614 0.005355
-0.061990 0.004878 0.003899
0.099695 -0.001291 -0.003517
-0.002090 0.025527 -0.005157
0.030488 0.013283 0.005052
0.066107 -0.012492 -0.005112
0.087688 0.009075 0.003573
0.049814 -0.004627 0.001642
0.091749 0.024507 0.002300
-0.024441 0.034520 -0.000617
0.050108 -0.032625 -0.001564
0.061155 0.007028 -0.005467
0.070099 -0.016366 0.002214
-0.054691 -0.020786 -0.000210
-0.019285 0.033196 -0.005271
0.095465 0.026159 0.004970
-0.018831 -0.027145 -0.004133
-0.083527 -0.022798 -0.001384
0.053827 0.004140 -0.005830
0.049167 -0.012922 -0.004697
0.012614 -0.033999 0.002177
0.080024 0.000055 -0.000033
-0.072625 -0.000631 -0.003551
0.003532 -0.027072 -0.000593
0.071913 0.019239 -0.002951
0.034710 0.015914 -0.001473
0.046532 -0.021191 0.005472
-0.098571 0.013316 0.003400
-0.005409 -0.033966 0.000007
-0.090899 -0.026334 -0.005079
0.011374 0.029512 0.000874
0.041016 0.027516 0.005876
0.022579 0.006316 -0.001145
-0.061239 -0.005022 -0.002300
0.075550 0.024135 0.005530
0.095271 0.010558 -0.002091
-0.042525 0.027975 -0.001991
0.023938 -0.001505 0.001887
-0.094716 -0.021737 -0.002363
0.034941 0.026459 0.001021
0.005576 0.021938 0.001784
0.082289 -0.022350 0.003856
-0.068117 0.007623 0.003469
-0.089702 0.013212 0.004969
0.008862 -0.000995 0.002140
0.089234 0.020698 -0.002245
0.039751 0.034203 -0.000402
-0.010913 0.024109 -0.000790
0.070720 -0.023041 0.000220
0.025031 0.018086 0.001178
0.029916 0.033713 0.003377
-0.032374 0.033155 -0.003243
0.042427 -0.026317 0.003604
0.013934 -0.012369 0.002631
0.087386 0.008723 -0.002041
-0.027000 0.012518 0.000639
0.060838 0.025675 -0.005495
-0.031635 -0.004051 -0.002887
0.068412 0.013859 0.004493
-0.047701 -0.015976 -0.003868
0.072325 0.004602 -0.000358
0.030271 -0.012775 -0.003450
-0.057962 -0.012558 0.004417
0.028056 -0.003543 0.004579
0.016284 0.010826 0.001281
-0.034196 -0.023516 -0.005942
-0.033067 -0.009719 -0.000405
-0.047617 -0.005484 -0.004449
-0.072189 -0.023963 -0.000081
-0.028214 0.028818 0.003120
0.018724 -0.034836 0.004597
-0.040459 0.017256 0.005930
-0.066413 0.006593 -0.000049
0.017457 -0.024343 0.002096
-0.006527 -0.021155 -0.005799
0.000884 0.005579 -0.001319
-0.063957 -0.034895 -0.003500
0.077744 -0.027897 -0.001908
0.085019 0.008136 -0.000023
0.032554 -0.017697 -0.000262
-0.046346 0.016207 -0.001942
-0.015824 -0.031116 -0.003643
0.090508 -0.014187 0.004043
0.059958 0.013037 -0.004279
-0.077216 0.008841 0.001569
-0.068360 -0.020614 -0.000449
-0.017764 -0.024785 0.002128
-0.082326 0.019605 -0.001659
0.018768 -0.006153 0.000636
-0.063374 -0.014735 0.004707
-0.054089 -0.025139 -0.002608
0.054948 0.016128 -0.000401
-0.052748 0.018751 0.000647
0.010232 0.006055 -0.005556
0.044028 -0.029745 -0.002162
0.078504 -0.013072 0.001344
0.048036 -0.001747 -0.005516
0.057476 -0.008680 0.005680
-0.088510 -0.008115 -0.003116
0.051250 0.033652 0.000527
0.044096 -0.019574 -0.004719
-0.054807 0.031499 0.003133
0.058976 -0.011827 -0.005945
-0.087968 -0.007102 0.005918
0.094424 0.002235 0.004439
-0.048437 0.020432 -0.000094
0.074674 -0.026480 0.005092
0.084753 0.034781 0.001515
-0.027340 0.028852 0.000076
0.080412 -0.026092 -0.001732
0.089142 0.031644 -0.002088
0.008906 0.014811 -0.003278
0.078353 -0.001296 0.005381
-0.068992 -0.000894 0.000839
0.003430 -0.012156 -0.002192
-0.094266 -0.016752 0.002607
0.040900 0.000397 0.000698
-0.086142 0.015374 0.005592
0.073097 0.006598 -0.002664
0.093617 0.013378 -0.000430
-0.058429 -0.008629 -0.003808
-0.012767 0.004850 0.000874
-0.091981 -0.002319 0.003219
-0.046287 -0.007363 0.001848
0.049560 -0.003821 0.001589
-0.022858 0.019985 -0.003999
-0.091028 -0.023044 0.000668
-0.007742 0.015424 0.001967
0.045328 0.013708 -0.002555
-0.026558 0.028830 -0.002835
-0.070587 0.012307 0.000422
-0.054162 0.003302 0.000816
0.029463 0.031952 0.002505
-0.038097 0.033033 -0.001753
0.030235 -0.024111 0.002138
0.013331 -0.028610 -0.000765
0.010446 0.024199 -0.003217
-0.012926 0.018959 0.005076
0.040190 0.033581 0.004446
-0.057013 -0.010100 0.004634
0.080440 -0.031915 0.001684
-0.098579 -0.005403 0.000665
-0.032987 0.010258 0.002666
-0.071898 -0.032797 -0.002002
-0.049920 0.020112 -0.003837
0.026642 -0.016753 0.003808
-0.054293 -0.033729 -0.005052
0.026387 0.004344 0.000339
-0.097794 -0.005357 -0.004696
0.000285 -0.001034 0.000163
-0.063186 -0.007813 -0.002748
0.066167 0.015134 0.001354
-0.066153 0.032461 0.002235
-0.062763 0.015933 0.004329
-0.041880 -0.015225 0.002849
0.085132 0.034060 0.001545
-0.014246 0.010305 -0.003461
0.002216 -0.020039 0.002372
0.045132 -0.005878 0.000816
0.081360 -0.017509 0.001965
0.057057 -0.003100 -0.004549
0.044490 0.008929 -0.005177
0.046011 -0.003785 0.003182
0.079956 0.013525 0.003834
-0.083228 -0.024198 -0.003551
0.077865 0.016603 -0.003622
-0.024388 -0.034598 -0.003805
-0.076377 -0.021663 0.000297
-0.014132 0.012686 0.000649
-0.014474 -0.034432 0.004127
0.002791 0.027639 -0.004930
-0.043367 -0.011742 0.000282
-0.038773 0.016543 0.001779
0.051390 -0.023023 0.003650
0.087402 -0.002833 0.001798
-0.068833 -0.023951 0.003585
-0.045320 -0.031529 0.000163
0.055044 -0.019382 0.004679
-0.037150 -0.014853 -0.003902
-0.092248 0.005959 0.005369
0.011649 0.030183 -0.002439
-0.070123 0.002015 -0.004276
-0.044180 -0.024267 0.004416
-0.076782 0.034541 0.003916
0.035867 -0.004035 -0.003982
-0.052797 0.009666 -0.003825
0.041395 0.021117 0.002297
-0.035014 0.018388 -0.003259
-0.070804 -0.001202 -0.001222
-0.089680 -0.017347 -0.002097
-0.076543 -0.013560 -0.004021
-0.087796 -0.034127 -0.000910
-0.095092 -0.026578 -0.003901
0.007482 0.025106 0.002448
-0.020253 0.031447 -0.003172
-0.005191 -0.007337 -0.005574
0.041428 -0.032458 0.003891
0.092211 0.000803 0.000931
-0.015287 -0.015394 -0.000430
0.017207 -0.009794 0.000977
0.070143 -0.032286 0.003259
0.047115 0.010857 -0.000774
-0.039106 0.019881 -0.001752
0.037519 0.030872 -0.000201
0.079873 -0.007265 -0.003905
0.019820 0.010733 0.004786
0.051304 -0.002236 0.003064
0.045925 -0.033141 0.002659
-0.095814 0.020015 -0.004309
-0.029816 0.025055 0.002736
0.007423 0.014576 0.005984
-0.050085 0.013569 -0.000195
0.096223 0.005996 -0.005423
-0.026921 0.014001 0.004238
0.016541 0.032343 0.000895
-0.019609 0.019999 -0.002539
-0.053282 -0.002367 0.005519
0.082403 -0.029290 -0.002550
-0.044909 0.000218 -0.003032
-0.056710 -0.030941 -0.000211
-0.066136 0.014272 0.002182
0.047648 0.021180 0.002323
-0.051332 -0.007681 -0.003278
0.051664 0.026050 -0.005756
0.057054 0.008214 -0.005815
-0.097998 -0.012312 -0.001990
0.041570 0.001553 0.004785
0.094216 -0.007115 -0.003783
0.025678 0.029964 0.000970
0.098025 0.005988 0.002215
0.073742 0.006454 0.002200
-0.077537 0.008597 0.000368
-0.080502 0.004828 0.004918
-0.014359 -0.002691 -0.000682
-0.003849 -0.006558 -0.005953
-0.063142 -0.005335 -0.001835
0.043428 0.033838 0.001296
0.041950 -0.017805 0.004885
-0.093476 -0.008412 0.001353
-0.093008 -0.025237 -0.001313
-0.049922 0.023493 -0.004183
-0.070115 -0.005700 -0.001703
0.007067 -0.034829 0.001903
-0.051571 0.010464 -0.002172
-0.093141 -0.016048 -0.002166
0.061192 0.031005 -0.003565
-0.050761 -0.022119 0.001521
-0.082661 -0.009725 -0.000563
-0.077292 -0.022265 -0.001947
-0.057902 0.004449 -0.003877
-0.072295 0.005679 0.002208
-0.031426 0.012100 0.001369
0.059765 -0.021491 0.003528
0.051093 0.013984 0.001287
0.005242 0.001944 -0.004584
0.072777 -0.032907 0.000837
-0.091630 -0.028398 -0.004535
-0.064074 -0.031029 -0.004583
0.086650 0.001787 0.005176
0.011460 0.006052 -0.004239
0.020836 0.021801 -0.001500
-0.049264 0.020024 0.001780
-0.068853 0.024382 -0.000601
0.010485 -0.005822 -0.002002
-0.042013 0.013508 0.000980
-0.081427 -0.033785 -0.001979
-0.085087 -0.021379 0.004161
0.003832 -0.034611 0.002124
-0.049385 -0.014752 -0.004765
-0.089321 -0.005255 -0.001181
0.079568 -0.008403 -0.000335
-0.070992 0.023041 0.005369
-0.035618 0.004091 0.001931
0.010856 0.031562 -0.005259
0.016370 0.002244 0.001145
0.007798 0.018573 0.000174
-0.022374 -0.006159 0.000660
-0.070810 0.002105 -0.003136
-0.040334 -0.026726 0.003873
0.040939 -0.005846 0.003095
-0.052929 -0.016610 -0.003982
-0.080371 -0.034817 -0.005900
-0.019533 0.007771 0.000747
-0.055282 0.023189 -0.000634
-0.097570 -0.010595 0.001604
0.046986 -0.027198 -0.002126
-0.044089 -0.030645 0.001723
0.018167 0.016875 -0.001797
0.095602 -0.004981 0.002776
-0.082711 -0.012620 0.004826
0.058965 -0.008907 0.002085
-0.057660 0.007739 -0.004181
0.019294 -0.023721 -0.003123
-0.034307 0.021606 0.001459
-0.024984 -0.028464 0.000838
0.082666 0.033837 -0.003459
0.095051 -0.004527 -0.002144
-0.060023 -0.033679 0.003963
0.082501 0.029304 0.002393
0.098550 -0.014190 -0.000393
-0.048925 0.027510 -0.000833
0.099688 -0.016801 -0.003315
-0.007134 -0.028755 0.002914
-0.015527 0.026943 -0.002797
0.043459 -0.015418 -0.005626
0.095840 0.013492 -0.003405
-0.051498 -0.006741 -0.000680
-0.044935 -0.025830 -0.003424
-0.056657 0.033130 -0.001425
-0.061322 0.004883 0.004936
0.052816 -0.001562 0.003389
-0.024738 0.023942 -0.003487
0.015832 -0.017597 -0.001910
0.085715 -0.016871 -0.000206
-0.059106 0.004444 -0.001443
0.041921 0.006230 -0.003104
0.014284 0.008956 0.001880
-0.071170 0.009848 0.004159
0.071457 0.024364 0.000400
-0.094855 0.034577 0.002218
0.022244 -0.024034 -0.000532
0.010028 -0.015141 -0.003901
-0.011804 0.016978 0.001072
-0.064001 -0.013557 0.001172
-0.087199 -0.000349 -0.003810
0.042920 0.006336 -0.000827
0.078694 -0.030832 0.004796
-0.079635 -0.012044 0.002450
0.006948 0.025392 0.003635
-0.005582 0.002277 0.004211
0.007348 0.012993 -0.004258
-0.045390 0.029326 -0.000628
-0.019122 0.011025 0.003483
0.013270 0.023868 -0.001389
-0.018791 0.031238 0.000078
0.018119 0.019344 -0.004891
0.021784 0.022365 0.001309
-0.004820 -0.022650 0.004197
-0.075271 0.017765 0.005885
-0.074561 0.001243 -0.003514
-0.043274 0.029003 -0.004986
-0.037904 0.001835 0.003511
-0.071108 0.014387 0.005081
-0.021732 0.008927 -0.005745
0.039834 -0.012901 -0.005625
-0.033766 0.007495 -0.002612
0.035356 0.032661 -0.003817
-0.077663 -0.024951 0.002000
-0.051539 -0.017153 0.001137
0.082880 0.031721 0.005443
0.069188 0.025561 -0.000149
0.046055 0.019666 -0.000269
0.046179 -0.024806 -0.002528
-0.030938 -0.004672 -0.005473
-0.018100 0.019800 0.002175
0.069674 -0.032363 0.005509
0.091143 0.002522 -0.004254
-0.063182 -0.027377 -0.003758
0.062295 -0.030562 -0.000708
0.065256 -0.020068 0.005952
-0.025465 0.002612 0.001305
-0.022606 0.020217 0.001979
-0.002026 -0.026912 -0.005922
-0.080153 -0.033587 -0.002925
0.087285 -0.031207 0.005780
-0.001152 -0.015855 -0.004809
0.094079 0.022702 -0.000451
-0.048911 -0.029166 0.003644
0.094224 -0.000204 -0.002231
0.048423 0.004738 -0.001187
0.028158 -0.007479 0.005132
0.086791 -0.020058 0.000391
0.072399 -0.004225 -0.003328
0.009615 0.001504 -0.000360
0.084179 -0.012584 0.002639
-0.086640 -0.009197 -0.000607
0.056796 0.018560 -0.001819
0.059117 -0.025000 0.004815
0.052035 -0.029306 0.005176
-0.060152 0.026064 0.004370
-0.013897 -0.008491 -0.002078
0.087005 0.004099 -0.005324
0.086767 0.008646 0.005525
-0.059253 0.025904 0.004261
0.034500 0.004831 0.001333
0.011970 0.011364 -0.001056
0.002925 0.027670 0.005428
-0.003159 0.002614 0.000736
-0.054508 -0.009537 0.002997
-0.024836 0.025156 0.003603
0.004530 -0.017181 -0.003168
0.084991 -0.012837 0.002254
-0.071947 -0.020445 0.000678
-0.083949 -0.013751 0.001935
0.096871 -0.004233 0.004765
-0.004970 -0.017064 0.000883
0.031604 -0.020785 -0.005337
-0.073016 -0.015933 -0.003641
-0.056798 0.015151 0.003815
0.026346 -0.029729 -0.000978
-0.075339 0.023542 0.005237
0.004340 0.016349 0.000456
-0.043921 -0.005659 -0.005380
0.063849 0.001136 0.000584
-0.068827 -0.017468 0.003089
-0.056415 -0.013133 0.004377
0.059990 -0.027198 0.002300
-0.003731 0.000584 0.000966
0.067880 0.033537 -0.005713
-0.001191 -0.013344 -0.005606
0.023584 -0.025881 0.001284
-0.052689 -0.007170 0.005824
-0.056510 -0.026265 -0.004753
0.064198 -0.032177 -0.003784
-0.086851 0.001557 -0.001476
-0.094018 0.021708 0.000252
-0.073103 -0.031143 0.003996
0.026217 0.013549 0.001724
-0.052311 -0.022759 -0.005191
-0.039673 -0.007456 0.001220
-0.065121 -0.021085 -0.003891
-0.043927 0.021537 -0.003482
0.036020 -0.028334 0.002383
0.086505 0.021871 -0.000069
0.027198 -0.026154 0.003637
0.030377 -0.011543 0.004449
0.091293 -0.004342 0.002809
0.019132 0.031691 0.005246
-0.045762 -0.000425 -0.001463
-0.003858 -0.033143 0.001208
0.048468 0.033325 -0.001428
-0.068108 0.020120 -0.005693
0.059966 -0.024000 -0.002903
-0.067368 -0.027218 -0.000921
0.045070 0.017319 -0.003838
0.015873 -0.001742 -0.002757
0.057369 -0.003129 0.003723
-0.028114 0.028215 -0.001036
0.004034 0.010317 0.004762
0.099317 -0.002653 0.000149
-0.041023 0.012096 -0.002284
-0.023712 0.008002 0.002940
0.022793 0.019575 -0.000732
-0.058132 -0.002513 -0.002012
0.084494 0.005841 0.001033
-0.089564 0.006893 0.004114
-0.035144 -0.005977 -0.000561
0.054679 0.011171 -0.005733
0.041695 0.022717 -0.001145
0.069235 -0.009281 0.002113
0.092532 0.000109 0.005195
-0.077487 -0.031092 0.001692
0.029704 -0.010529 -0.001816
-0.056884 -0.019309 -0.003626
0.003868 0.002496 -0.000774
0.016684 -0.033492 0.002299
0.039799 0.029315 0.002211
-0.051892 0.032414 0.002870
0.071987 -0.000697 0.001340
-0.067059 0.031391 -0.004601
0.041659 0.011319 0.000416
0.094244 -0.006705 0.000261
-0.065447 0.014065 0.004420
0.046611 -0.011936 -0.003041
0.085000 0.012953 0.000129
-0.004786 0.025737 -0.005851
0.083277 0.004394 0.003981
0.019989 0.033104 0.003330
-0.028176 -0.002478 -0.004526
-0.054104 0.014797 0.002476
0.018072 0.033680 -0.003418
0.005721 -0.006389 0.003900
-0.067333 0.018020 0.000110
-0.026651 -0.028352 0.004418
0.003866 0.004808 0.003500
0.067126 0.030568 0.004534
-0.057874 0.003501 0.005735
0.043031 -0.018310 0.003092
-0.021309 0.000989 -0.005289
-0.066313 0.009812 0.001550
-0.080114 0.003999 0.002253
0.050223 0.010960 -0.002012
-0.082619 0.014690 -0.003782
0.090284 0.029804 -0.002320
0.025124 0.033952 0.005698
0.083015 -0.024085 -0.001546
-0.089176 0.016503 -0.000350
0.021218 0.007155 0.001955
-0.076659 0.017315 -0.001056
-0.053846 -0.002282 0.004560
-0.059486 0.003228 0.001488
0.028935 0.023347 -0.003673
-0.044214 -0.020374 -0.004309
0.014735 -0.011423 0.003771
-0.099956 -0.019558 -0.000731
0.087354 0.017439 -0.003707
-0.012382 0.024260 0.004834
-0.070365 0.007859 -0.005442
0.089405 -0.011967 0.001618
0.057136 -0.019073 -0.001780
-0.060210 -0.005779 0.005503
-0.068315 -0.016628 -0.004722
0.084088 0.026834 0.001744
-0.058559 -0.021120 0.002840
0.030207 0.011425 -0.001878
0.094360 -0.024713 0.005704
0.012607 -0.029850 -0.004117
0.005726 -0.022818 -0.002921
-0.084586 -0.000386 -0.003685
-0.034591 0.012378 0.003014
0.023342 0.026466 -0.003139
-0.099835 0.013064 -0.000560
-0.060379 -0.004289 0.005582
0.006792 0.006945 -0.001214
0.053700 -0.008223 0.002172
0.046850 -0.019659 0.005823
0.060875 0.016079 -0.001035
-0.074160 -0.015551 -0.001002
-0.079784 -0.033689 0.003358
0.046470 0.022240 0.002252
0.061649 -0.012881 0.004439
-0.083339 0.032892 0.000167
0.086818 0.011982 -0.005102
-0.056157 0.014730 -0.000871
0.000420 -0.002450 0.002688
-0.079133 -0.006111 0.002353
-0.014435 -0.018046 0.004154
0.012285 0.030111 0.005117
0.066486 0.027354 0.004758
0.099519 0.010730 0.003174
0.024695 0.024126 -0.000685
0.012644 -0.007917 0.002393
-0.097639 0.027973 -0.001967
-0.096245 0.001704 0.000388
0.026898 0.021724 0.003067
-0.097605 -0.013101 0.004894
-0.042725 0.016801 0.005037
-0.044663 0.021406 -0.001437
-0.065701 0.009169 0.000317
-0.088758 -0.005798 0.003521
-0.031182 -0.033912 -0.003873
0.090303 -0.019193 -0.004580
0.040797 0.003169 0.003039
0.085011 0.026717 0.002063
-0.050765 -0.001624 0.003584
-0.047312 -0.008833 0.005611
0.008054 -0.003836 -0.001211
0.077962 0.030310 -0.000914
-0.034935 0.027181 -0.001289
0.055380 0.008384 0.002331
-0.013355 -0.034997 0.002526
-0.059817 -0.008025 0.003776
0.085149 -0.013344 -0.004212
0.023213 0.024807 0.000709
0.016001 0.025316 -0.003061
0.044023 0.006836 -0.000255
-0.090846 -0.015954 -0.002154
-0.053305 -0.006454 0.005605
-0.078246 0.003412 0.002389
0.035593 -0.030774 -0.005727
-0.067786 0.001619 -0.004776
0.026196 0.009133 0.004116
0.065077 -0.030957 0.003636
-0.033950 0.033538 -0.003042
-0.079381 0.017987 -0.005943
0.044712 0.015214 0.002352
-0.089002 -0.026340 -0.003806
0.047159 0.019040 -0.005520
-0.078699 -0.017638 -0.004675
0.059700 -0.025736 0.005800
0.091484 0.016549 -0.005457
-0.083779 -0.027935 0.001391
-0.055952 0.030291 -0.002061
0.024771 0.013833 0.002444
0.034884 -0.017941 0.000420
0.030840 0.033314 -0.002162
0.033499 0.025144 0.005079
0.087516 -0.032210 0.000660
-0.034560 -0.028824 -0.004761
-0.060680 -0.011811 0.005208
0.077369 -0.017107 -0.000085
-0.066556 -0.022526 0.002478
0.010144 -0.010548 0.005847
-0.066171 -0.006011 0.002974
-0.072901 0.006173 0.003866
-0.088967 0.024087 -0.005811
-0.042619 -0.005809 0.001949
0.019375 0.027458 -0.002432
0.011566 0.003122 -0.005195
-0.005751 0.006982 -0.000730
-0.030406 0.008438 -0.005845
-0.064813 0.022883 -0.000615
0.024674 0.025429 0.005034
-0.073476 -0.003118 -0.002051
-0.056784 -0.009913 0.003977
0.093110 0.013634 -0.003457
-0.007225 0.017881 0.002459
-0.042614 -0.000871 0.001774
0.028405 0.000996 0.003012
0.055319 -0.011380 -0.004138
-0.014202 0.020538 -0.005972
0.095333 0.025155 0.003005
0.019271 0.023702 -0.005029
0.008169 -0.016706 0.001500
0.030982 0.010477 -0.002271
0.023596 0.015842 0.002147
0.093699 0.023757 -0.001181
0.054140 0.029550 0.001871
0.049631 -0.015357 -0.002873
0.040522 -0.014700 -0.002793
-0.044899 -0.021220 0.001183
-0.051671 -0.007536 -0.004259
-0.083288 0.007357 -0.002543
-0.076121 -0.030204 0.005188
-0.082481 -0.029396 0.003835
-0.014686 -0.015270 -0.004173
-0.042886 0.008028 0.003808
-0.012318 -0.023118 -0.005926
0.089928 0.005553 0.002474
0.064081 0.023692 -0.001009
0.037514 -0.010399 0.001222
-0.011087 -0.028025 -0.001268
0.028896 0.032324 0.005250
-0.039097 -0.034152 -0.002604
0.091322 -0.020065 0.005849
-0.080576 -0.025487 0.005047
-0.078929 0.024229 -0.005209
-0.017750 -0.003890 -0.005444
0.085786 0.010140 0.005603
0.055371 -0.005808 -0.004425
-0.049520 0.033667 -0.003936
-0.032410 -0.013098 0.004063
0.043220 0.003496 0.002874
-0.007097 -0.033515 -0.004716
0.014073 0.007848 -0.002410
-0.039916 -0.000985 -0.004782
0.094636 0.018709 0.004545
0.032463 -0.005804 -0.004046
0.065048 -0.024580 -0.004525
-0.083965 0.010700 -0.004686
-0.009647 0.024879 -0.004178
-0.047836 0.001022 -0.004675
-0.095348 -0.026036 0.004583
-0.028928 -0.011773 0.000075
-0.023135 0.021539 -0.002745
0.024643 0.027036 0.005446
-0.057451 0.012902 0.003997
0.015651 0.034535 0.002117
0.090102 0.003212 0.003734
-0.057887 -0.003442 -0.000132
-0.005112 0.017052 -0.004227
-0.069794 0.015709 -0.000129
0.082879 -0.022074 -0.004380
0.078910 -0.005612 0.004605
-0.016132 -0.034792 0.005206
0.025795 -0.011297 -0.003301
-0.056680 0.001890 0.004637
-0.084550 0.013559 0.004235
-0.051540 0.009333 -0.000065
0.080930 0.021451 -0.002667
0.001288 -0.006585 0.005980
-0.085121 -0.014423 -0.005694
0.059469 -0.019890 -0.000862
0.079099 -0.020125 -0.003979
-0.038780 0.012226 -0.003684
0.079068 0.034661 0.000479
-0.056710 -0.000561 0.000158
-0.066673 0.011112 0.005495
-0.048486 -0.010649 0.000622
-0.075188 -0.022236 -0.000503
0.041809 -0.012947 0.002994
-0.009915 -0.030946 0.002371
0.085371 -0.017712 0.002432
-0.045255 -0.000497 -0.001328
0.042494 -0.034882 0.004549
0.015666 -0.028238 0.000487
0.005308 -0.004378 0.000946
-0.034149 -0.025640 0.001086
-0.056534 0.007696 -0.005336
0.001740 -0.033564 -0.003903
0.058260 -0.023391 -0.001414
