ply
format ascii 1.0
element vertex 1200
property float x
property float y
property float z
end_header
-0.004956 -0.001196 -0.001575
0.038341 0.001806 0.003647
0.025888 0.001847 0.001409
-0.021681 -0.002120 0.003545
0.045966 -0.004215 0.002463
-0.031410 -0.002354 0.000076
0.032745 -0.002674 -0.002317
-0.023883 0.004846 0.000776
-0.011007 0.004961 -0.000036
-0.018932 -0.004958 -0.000373
-0.011728 -0.002494 0.002712
-0.031072 0.002846 -0.001816
0.029917 0.000932 -0.000530
0.023043 0.001750 -0.003275
-0.015217 0.002983 -0.002551
0.033588 -0.001139 -0.001061
0.003459 -0.004585 0.000682
0.004150 0.000474 -0.002977
0.038552 -0.003797 0.000551
-0.039649 -0.002140 0.001510
0.025380 0.001440 0.004002
0.005329 -0.002332 -0.000245
-0.029288 0.002829 -0.003197
0.010876 -0.001064 0.001461
-0.028700 -0.002536 0.002938
0.013749 -0.002263 -0.000593
-0.025231 -0.001932 -0.004482
0.017048 -0.001858 -0.003200
0.017464 -0.002534 -0.001158
0.014970 -0.002389 -0.004074
-0.036653 -0.002655 0.003995
-0.037509 -0.001246 0.001346
-0.037312 -0.004265 -0.002165
0.010961 0.003425 -0.003095
0.035545 0.004072 -0.001719
0.018092 0.002389 -0.000367
-0.030499 -0.003709 -0.003210
-0.029543 0.000428 -0.001436
-0.021508 0.000374 -0.000218
-0.036248 0.001002 -0.001235
0.001776 0.004879 -0.000227
0.021368 0.000282 -0.003884
0.031224 -0.001114 0.000246
0.032867 0.002457 0.000936
0.019837 -0.000259 -0.000765
-0.015598 -0.002083 -0.001333
0.041265 -0.003154 -0.002151
0.044323 0.000353 0.002243
-0.000179 0.000279 -0.001117
-0.007547 0.003328 0.002739
0.042209 -0.001393 0.003654
0.018561 0.003289 0.002853
0.021553 0.003704 0.000194
0.019583 -0.002799 0.000621
0.043704 -0.004098 -0.001260
0.044334 -0.003118 -0.003546
0.046595 0.000367 -0.000546
0.025941 -0.001408 0.001645
-0.045552 -0.001051 -0.003938
0.033063 0.002912 -0.003018
0.032022 -0.003628 0.002635
-0.037245 -0.003200 0.002522
-0.030115 -0.004598 -0.000621
0.000374 0.001076 0.004706
-0.030107 -0.003617 -0.002791
0.044858 0.000096 -0.001692
-0.034470 0.003176 0.000534
-0.044567 -0.002584 0.003855
0.028678 0.003114 0.003312
-0.011186 0.004920 0.000093
0.029734 -0.001054 -0.001549
0.038385 0.001403 -0.003568
0.016144 -0.004652 -0.000396
0.013701 -0.000811 -0.001557
-0.022488 0.001123 0.003398
-0.004013 0.000691 0.002860
0.023394 -0.000936 -0.003426
-0.008153 -0.004070 0.001548
-0.003080 0.000327 -0.000389
-0.022272 -0.000498 -0.002573
0.039236 0.002946 0.001635
0.049784 -0.003498 -0.002494
-0.012899 0.000089 -0.004249
-0.048844 0.002120 -0.001362
0.016830 -0.002629 0.000401
0.027193 -0.002308 -0.000697
-0.039002 0.004423 -0.000147
-0.034909 -0.000571 -0.001767
-0.039219 0.000225 0.002109
0.033509 0.000158 -0.001471
0.021134 0.000015 -0.003519
0.023148 0.001434 -0.002057
-0.024856 0.002002 -0.003882
-0.031616 0.000666 0.002025
0.004563 0.003142 0.001278
0.021391 -0.003691 -0.002805
0.032592 -0.001097 0.002794
-0.029233 -0.001225 0.001367
0.000455 -0.001155 0.003368
0.029835 -0.000655 -0.004776
0.026640 -0.000224 -0.004695
-0.018840 -0.000623 0.002173
-0.023141 -0.002229 -0.003121
0.014298 -0.003622 0.001873
0.024122 -0.002311 0.001324
-0.036989 0.004257 -0.001456
-0.007816 -0.001635 0.004130
0.020284 0.003778 0.002104
-0.037241 0.001738 -0.003961
-0.014602 -0.004353 0.000271
-0.023899 0.000336 0.004118
-0.044664 0.003536 -0.000438
-0.007037 -0.002299 0.002157
-0.002045 0.001528 0.003503
0.011591 0.001649 -0.000088
0.030667 -0.002610 -0.001056
-0.019298 0.001280 0.004141
-0.019916 0.001666 0.003164
0.049918 0.002596 0.000554
0.043780 -0.003697 -0.002792
-0.001970 0.002987 -0.003568
0.039945 -0.001144 0.004532
-0.029868 0.001423 0.000405
-0.021782 -0.004788 0.000869
-0.026078 -0.003766 0.000949
-0.034402 -0.001617 -0.003969
0.001573 0.003260 0.000380
-0.005244 0.001539 -0.002214
-0.020985 0.002993 0.003862
-0.010447 0.001433 0.002469
0.016902 0.002920 0.002959
0.025841 0.003832 0.002223
0.044905 -0.000938 -0.004548
0.049713 0.002783 -0.003484
0.022265 0.001929 -0.000693
0.005724 -0.002298 -0.002441
-0.018517 -0.001791 -0.001444
-0.020524 0.004094 0.000033
0.030538 -0.003697 -0.002930
0.045635 0.001008 -0.003569
0.017281 -0.000576 0.004692
-0.028793 0.000812 0.001478
-0.004596 0.001196 0.000292
-0.019882 0.001453 -0.002501
-0.003452 -0.000337 -0.004045
0.040904 -0.003664 0.001452
-0.036628 0.002780 -0.000441
-0.031730 -0.000495 0.002969
-0.022215 -0.002420 0.002879
-0.031175 0.002276 -0.000179
-0.012516 -0.003909 -0.000551
-0.045990 -0.000400 -0.001344
0.002075 0.002029 0.001050
0.030808 0.003892 0.002955
-0.041399 -0.000552 0.004259
-0.036909 0.001851 -0.003452
-0.031586 0.000423 0.004878
0.040682 -0.004058 0.000616
-0.001446 -0.003216 -0.002872
-0.017336 -0.001755 0.002305
-0.029895 0.003310 -0.001392
-0.000732 0.002289 0.003681
-0.007381 -0.003029 0.001016
-0.000611 -0.000425 0.000233
0.033053 0.001153 0.004654
-0.009141 0.000000 0.003104
0.006404 -0.002676 -0.000123
0.041197 0.002645 -0.003659
-0.047915 -0.003360 0.001597
-0.025747 -0.003864 -0.002742
-0.030270 -0.002028 -0.004170
0.001050 0.002982 -0.003859
-0.014784 -0.000167 -0.002742
0.026291 -0.000337 0.003194
-0.016088 0.000954 0.002165
-0.005754 0.004158 0.000095
0.001649 -0.003253 -0.002511
-0.035915 -0.003756 0.000614
-0.030334 -0.000390 0.001669
-0.020604 0.000337 -0.001552
0.036243 -0.002604 0.002654
-0.018190 0.000307 -0.004129
-0.010593 -0.003579 0.002882
0.041383 -0.001243 0.000211
-0.012232 0.003644 0.001181
0.022429 0.001431 -0.003348
-0.002620 0.000691 -0.001609
0.023207 0.001832 -0.001162
0.023358 -0.001936 -0.003420
-0.032722 -0.003014 0.001673
-0.012316 0.001188 0.004299
0.004277 0.002355 -0.000838
-0.010709 0.000091 0.001386
-0.001636 -0.000395 0.003406
-0.022251 -0.001065 0.001415
-0.015804 0.002056 0.003440
-0.043867 -0.003657 -0.000000
0.001358 -0.001501 0.004045
-0.025352 0.003683 0.002805
0.002340 0.003561 -0.002123
-0.010184 -0.004809 -0.000763
-0.003612 0.002991 -0.001960
0.040730 0.002701 -0.003823
-0.012526 0.000851 -0.001096
0.014687 0.002497 0.002141
0.011114 -0.001590 -0.000856
0.035314 -0.001441 0.002853
0.038685 -0.000478 -0.001691
-0.038787 -0.000271 0.001518
0.049061 -0.003648 -0.003309
0.021295 0.003497 0.003060
0.017303 0.002710 -0.001140
0.025662 -0.000047 -0.004841
0.015065 0.002301 -0.000681
-0.012497 0.001748 -0.003815
0.013840 -0.001924 -0.000477
0.047786 0.003485 0.000687
0.041513 -0.002444 0.002134
0.040661 -0.003584 0.000133
0.011151 -0.000904 -0.002512
0.029933 0.004898 0.000501
-0.044569 -0.004696 0.000385
0.024091 -0.000794 0.004394
-0.035182 -0.004227 0.001529
0.041436 0.000160 -0.002004
-0.007440 0.001248 -0.004353
-0.001792 0.001299 0.000025
0.021811 0.002135 -0.003276
-0.034743 -0.002033 -0.002756
-0.033154 -0.001471 -0.000192
0.018714 0.003666 -0.000683
-0.046103 -0.004241 -0.002365
0.005183 0.000243 -0.001662
0.006842 0.001920 -0.003181
0.041716 -0.004002 -0.002518
-0.035031 0.003524 -0.001288
0.025489 -0.000239 -0.004364
0.002630 -0.002656 0.001264
0.022269 0.001141 0.001402
0.045362 0.000380 -0.003346
0.021031 -0.001619 -0.003718
0.029232 -0.004932 -0.000760
-0.043964 0.004163 -0.002353
-0.023631 0.000496 -0.003757
-0.001843 -0.001056 -0.002910
-0.000934 0.001968 -0.002445
-0.041348 0.002287 0.002167
0.012676 0.000444 0.001579
0.037124 0.000554 -0.004568
-0.018149 -0.000519 0.000331
0.000475 -0.001792 -0.003277
-0.015786 0.000313 0.003747
-0.035780 -0.004156 -0.001011
0.047930 0.003126 -0.002984
-0.045491 0.002941 0.002987
0.014423 -0.004419 -0.000837
-0.011699 -0.002268 -0.001917
-0.030038 0.002461 0.001447
0.014345 0.002144 0.000909
-0.008296 0.003802 0.001768
-0.017145 -0.002022 -0.003505
0.039061 0.001251 -0.002859
-0.002429 -0.000463 0.003156
-0.041164 -0.000966 -0.001988
-0.035993 -0.001460 0.002448
-0.003011 -0.002582 -0.002922
0.042708 -0.001854 0.003562
-0.004532 0.001452 0.003408
0.019170 0.003875 -0.001376
0.018729 0.000766 0.000999
0.012738 -0.003890 0.002086
-0.001314 0.002839 0.001150
-0.047211 0.001833 -0.001309
-0.003734 0.004233 -0.001469
-0.025559 -0.001338 0.001505
-0.009507 -0.002784 -0.002579
-0.010866 0.004454 0.000935
0.038389 -0.001155 0.004662
0.031642 0.001424 0.002669
-0.006987 -0.003102 -0.000735
-0.047381 -0.000640 0.002960
-0.012880 0.000020 0.003604
-0.003870 0.001421 -0.001985
-0.008539 -0.000712 -0.003048
-0.002408 0.000108 0.004886
0.029491 0.004612 -0.000845
0.009020 0.004652 0.000053
0.018265 -0.000348 -0.002267
-0.039798 0.000830 0.004906
0.034171 0.001103 0.001381
0.022579 -0.001959 0.002298
0.022805 -0.004737 0.000790
-0.048903 -0.001437 -0.004113
-0.043958 0.000963 -0.003664
0.003929 -0.004350 -0.000030
-0.016073 -0.000605 -0.004924
-0.007381 0.001068 0.000343
-0.023478 0.001575 0.003484
0.041311 -0.002766 0.003932
0.049452 -0.000239 0.002586
-0.026040 -0.001678 0.003522
-0.027590 -0.003391 0.001546
-0.009304 0.000418 -0.004358
-0.041039 -0.002182 0.001226
0.015603 -0.000866 0.003249
-0.015140 0.002699 -0.003373
-0.025212 -0.001110 0.001834
-0.032245 0.002138 0.004234
-0.043517 -0.001581 0.000001
-0.023618 0.002612 -0.000268
0.036636 0.000242 0.003141
-0.037623 -0.000381 0.002269
0.031108 -0.000431 -0.003936
0.003756 0.001797 0.002519
-0.029228 -0.001116 0.003301
0.013411 0.000306 0.001730
0.006706 0.001719 -0.002621
0.029845 0.002968 -0.003164
0.017655 -0.003482 -0.002118
-0.033422 -0.003411 0.002805
0.023688 -0.002893 0.000847
0.010904 0.003276 0.000303
-0.004688 0.000940 -0.002160
-0.038363 -0.001710 -0.001882
0.016184 0.001027 -0.004544
0.029249 -0.001686 0.003343
-0.038741 0.002241 0.001964
0.028791 -0.001862 0.004615
0.010575 0.001457 -0.001260
-0.006919 0.000827 0.003553
0.003904 0.000537 -0.004384
0.035915 0.002182 -0.004093
-0.030674 -0.003697 0.001510
0.008841 -0.001033 0.003514
-0.003356 -0.001851 -0.000904
-0.043545 -0.000965 -0.000183
-0.027129 0.004583 0.001879
-0.015373 -0.000183 -0.004608
0.013572 -0.001040 0.004576
0.038636 0.001268 -0.002365
-0.005042 0.003851 0.000994
-0.025368 0.000219 0.000852
0.041108 0.001937 -0.001919
-0.010434 0.003087 -0.000873
-0.040021 0.001833 -0.002121
0.004558 0.000725 0.004342
-0.044691 -0.002570 -0.004030
-0.010329 -0.000727 0.000200
-0.003963 0.004221 0.000677
-0.042149 0.000945 0.002558
-0.049245 0.000820 0.000867
0.017987 -0.002265 -0.000206
0.017122 0.002063 0.004066
-0.036957 0.001366 -0.001459
0.011364 -0.002606 -0.000669
0.021505 -0.000867 0.004677
-0.025895 0.003439 0.001140
-0.033321 -0.001826 0.001394
0.032034 -0.001664 0.000763
-0.045336 0.002732 -0.001074
-0.000978 -0.002649 -0.002136
0.039777 0.003837 -0.000695
0.025686 0.000975 -0.002302
-0.024884 -0.000238 0.003592
-0.024383 -0.000183 -0.004314
0.028289 -0.002968 -0.003798
0.011166 0.000627 -0.000081
-0.047828 0.001474 0.004058
0.005740 -0.003426 0.002385
-0.012266 -0.002862 -0.000122
0.047829 0.001813 0.002923
-0.043566 -0.004581 -0.000064
0.001231 0.002207 0.003462
-0.030334 -0.002626 -0.002773
0.030705 -0.003023 -0.000295
-0.032487 -0.002109 -0.000768
-0.041002 0.002425 0.003275
-0.030191 -0.003699 0.000367
0.002497 -0.000534 0.002819
-0.011629 -0.000029 0.003541
-0.030961 0.002104 0.001837
-0.001526 -0.000782 -0.002140
0.039506 -0.004660 -0.000028
-0.019122 0.003735 -0.001213
-0.027995 0.004912 -0.000256
-0.006665 -0.002026 0.001070
-0.029099 0.001668 -0.003050
0.021958 0.001509 0.002291
0.015412 -0.003343 0.003181
0.017646 -0.001086 0.003691
0.012881 0.001756 0.001922
-0.043451 0.001748 -0.002010
-0.039358 0.001391 -0.000879
0.030065 -0.001618 0.000990
0.010101 0.004255 -0.001753
0.000029 -0.001183 0.000932
0.002095 -0.000433 -0.000167
-0.024840 0.004113 0.000471
0.035227 0.001118 -0.002177
-0.022399 -0.003851 0.001394
0.011266 -0.001649 0.003033
0.010045 0.002502 0.003479
-0.009714 0.002124 0.002015
0.024417 -0.002385 -0.000950
0.042737 0.000521 -0.000832
0.042575 -0.001872 -0.003619
0.030887 0.000981 -0.004554
0.030952 0.000942 -0.003376
-0.031132 0.000417 -0.000582
-0.049996 0.001561 0.002991
-0.036067 0.000085 -0.003800
0.046954 0.003211 -0.000232
-0.037126 0.003854 -0.000739
-0.005960 -0.002521 0.003075
0.013305 0.004115 0.000534
0.022685 0.003613 0.000791
0.048882 0.001629 0.001230
-0.011086 0.002411 -0.000487
0.026071 -0.001351 0.004016
-0.019396 0.004070 -0.000066
0.001404 -0.004713 0.000517
-0.018827 0.000642 0.001054
-0.013037 0.002072 -0.004031
0.025387 0.003570 0.002212
0.024473 0.001939 -0.000991
-0.046797 0.003893 -0.000147
-0.020946 -0.001058 -0.002757
-0.041534 0.000293 -0.001644
0.002286 0.004004 0.002546
-0.046720 -0.000132 0.004360
-0.001107 -0.002011 -0.001905
0.021464 -0.002379 0.000088
-0.026443 -0.001804 0.003713
-0.003915 0.001574 -0.001305
-0.033669 -0.001731 -0.004674
-0.031469 0.001108 -0.000944
0.005525 -0.000790 0.004402
-0.033375 -0.003012 0.000105
-0.046071 0.002162 -0.000639
-0.049572 0.003078 0.003191
0.026860 0.000145 0.003986
0.023242 -0.000670 -0.002769
0.027396 -0.000564 0.000801
0.012669 0.003483 -0.000596
0.027101 0.000146 0.004865
-0.017787 0.001815 -0.003018
0.049259 -0.001240 -0.000630
0.048118 -0.001619 -0.003314
0.029099 -0.001550 -0.000882
-0.043381 0.000280 0.000188
0.013420 -0.000685 0.004931
-0.045620 0.003705 -0.002704
0.039084 -0.002559 -0.003824
0.024410 -0.000323 0.004796
-0.039008 -0.000353 0.002761
-0.041681 -0.002110 0.000244
-0.008307 -0.003221 -0.001550
0.031739 -0.003061 -0.003057
-0.023611 -0.001283 -0.002701
0.033843 -0.001732 0.003017
-0.021360 0.001766 -0.000528
-0.001818 0.001565 0.004723
-0.044969 0.001441 0.002843
-0.033798 -0.000476 -0.004193
0.027200 -0.004000 -0.000944
-0.010598 -0.000226 0.004486
-0.030556 0.001241 -0.003245
-0.033085 -0.003783 -0.000001
0.041169 -0.002153 -0.000501
0.028073 0.001232 0.004679
0.011032 0.004926 0.000632
-0.021538 -0.000655 -0.002016
0.006765 -0.001287 -0.001018
0.032483 0.000153 -0.003134
-0.046629 -0.000867 0.003941
0.036971 -0.000535 -0.004511
0.006851 -0.000685 -0.004350
-0.037132 0.001997 -0.002415
0.029676 0.002308 0.000570
-0.035372 0.003458 -0.002445
-0.012170 0.001841 -0.002137
-0.046973 0.000217 -0.002799
0.026585 0.002727 0.002254
-0.045522 0.003492 -0.003035
-0.031712 0.000648 0.001943
0.042027 0.001070 0.003908
-0.016375 -0.002234 -0.000760
0.044332 0.002025 -0.003373
0.028167 0.001614 0.001088
0.026764 -0.001252 -0.003417
-0.026306 -0.001956 -0.001338
0.036743 -0.000460 0.001639
0.018557 0.001890 -0.002177
0.000803 -0.002593 0.001447
-0.022468 -0.002182 -0.003367
-0.039889 -0.003513 -0.001901
-0.005639 -0.001939 0.004327
-0.005964 -0.000915 -0.003368
0.003868 0.001137 -0.004591
-0.032394 -0.003233 0.001224
-0.034903 -0.000141 -0.002845
0.003562 0.000198 0.002877
0.017020 -0.003176 -0.000999
-0.002551 0.000656 0.002354
-0.011886 -0.003831 -0.000740
0.002504 0.004352 0.002459
0.000004 0.002917 -0.002185
-0.005402 -0.002146 0.001391
-0.027051 -0.002159 0.002909
0.014482 -0.000699 -0.004181
-0.043993 0.002003 -0.001443
0.023915 -0.003535 0.002416
0.016062 0.001396 0.000730
-0.021727 0.000357 -0.001283
-0.045616 0.000614 -0.001152
-0.012918 -0.001763 0.001911
0.039847 0.001542 -0.001948
0.032937 0.004238 0.000777
0.044168 0.003060 0.000032
-0.001442 0.003495 0.001582
-0.014357 -0.002539 -0.003208
0.007117 0.000638 -0.001513
0.006435 -0.003651 -0.001645
-0.033006 0.002509 0.003685
0.007583 0.000807 0.001064
-0.019824 -0.001517 -0.001223
0.030115 0.000583 0.000554
0.032714 -0.003535 0.003402
0.036620 0.002682 -0.000572
0.038975 0.001242 -0.004492
0.040951 0.000014 -0.002001
0.004955 -0.000025 0.000762
-0.029515 -0.000672 0.001643
-0.039657 -0.000638 0.001800
0.040094 -0.001306 0.000530
-0.018298 -0.002365 -0.000094
-0.042560 -0.001607 0.000198
-0.046293 -0.000863 -0.003267
0.022298 -0.001607 -0.002983
-0.028671 -0.002325 0.001743
-0.037339 -0.000742 0.001118
0.048350 -0.004847 -0.001012
-0.003570 0.001281 -0.001563
-0.047994 0.000699 -0.001873
-0.031693 -0.002198 -0.003288
0.034208 0.001479 -0.002930
0.022717 -0.002858 -0.001979
0.019616 0.002878 -0.001255
0.018381 -0.001604 -0.003994
-0.019552 0.001871 -0.000260
-0.001079 0.002982 0.000307
0.030160 0.000784 0.001679
-0.014251 -0.000225 0.001170
0.047539 0.004699 0.000180
0.040717 -0.000507 -0.001781
0.029917 -0.000747 -0.001783
0.046286 -0.002064 -0.001227
-0.049677 -0.000591 -0.001802
0.006129 0.001944 -0.001853
0.030461 0.001276 0.001415
-0.038669 0.000049 0.004276
-0.043593 -0.000632 0.003592
0.014888 0.004518 0.001868
-0.003949 -0.001803 -0.000632
-0.001564 -0.000186 0.001409
0.033646 0.001431 -0.002884
-0.012164 0.001559 0.003368
0.021098 -0.001320 -0.003005
0.027081 0.002703 -0.002722
0.048244 -0.000503 0.000084
0.038015 -0.003601 -0.000079
0.031031 0.000171 0.003635
0.047795 0.000772 -0.002924
0.016102 0.001232 -0.001864
0.036549 0.002661 -0.002343
-0.012009 -0.000813 -0.000321
0.033382 -0.001540 0.001106
0.007628 0.001332 -0.002431
-0.017449 0.000356 0.004650
-0.011158 0.000783 0.001818
-0.042109 -0.001083 0.002829
-0.046850 0.002303 -0.002591
0.017323 0.003150 0.002607
-0.027750 0.001695 0.002838
0.037691 0.002102 0.002185
0.047851 0.001675 -0.003753
-0.022298 -0.002199 -0.001098
-0.032571 0.000090 -0.000516
0.043869 -0.000738 -0.001686
-0.034922 0.000392 -0.002612
0.030295 0.001876 -0.003223
-0.007919 0.000296 -0.004253
-0.003421 0.001077 0.003970
-0.021013 0.002599 -0.001756
0.031085 -0.002405 -0.003855
0.005507 -0.000237 -0.001432
-0.006483 0.003425 -0.000782
-0.023484 0.002846 0.001235
0.004937 -0.003002 0.003375
-0.048899 0.002553 0.002772
0.021582 0.000094 0.004486
-0.038202 0.002298 -0.002842
0.003178 0.001247 -0.003214
0.007824 -0.002817 -0.000715
0.006144 0.000407 0.001218
-0.024124 -0.000982 0.000206
0.024261 -0.004148 0.001409
-0.002648 0.001354 0.002738
0.023387 -0.001912 -0.001308
0.020166 0.002451 -0.001048
-0.028531 -0.002303 -0.002169
0.026294 0.000495 -0.000394
0.040866 -0.002834 0.000968
0.040102 -0.003853 0.001859
-0.026537 0.001164 -0.001459
-0.038763 -0.003132 -0.002578
0.024960 0.001588 0.001430
-0.009558 0.004500 -0.000190
-0.007557 -0.003664 -0.002191
-0.046397 0.003549 -0.003398
0.001295 0.002568 -0.000294
0.000478 -0.001663 -0.003633
0.013564 -0.001241 0.002166
-0.047035 0.003351 -0.003575
-0.049908 -0.004081 -0.002380
0.022412 -0.000452 0.000783
0.024355 -0.001120 -0.000307
0.018753 -0.001024 -0.002182
0.011132 -0.001763 0.000741
-0.012842 0.001770 -0.002640
0.037186 0.003154 0.000834
0.042495 0.004161 -0.001619
0.043961 0.001128 0.000402
0.039560 0.000419 0.001165
0.037751 -0.002613 -0.001950
0.006144 -0.003843 -0.001754
-0.008456 0.003718 0.001451
0.036475 0.002719 0.000182
0.004136 -0.002849 -0.003200
0.013039 0.000719 0.003729
-0.044801 -0.002236 -0.001609
-0.021839 0.004062 -0.002528
0.013713 0.002689 -0.003774
-0.016681 -0.002903 0.001809
-0.048368 -0.001775 -0.002927
0.014575 0.004273 -0.001097
-0.020793 -0.003997 -0.000079
0.034561 -0.004963 -0.000153
0.039237 -0.000813 0.001375
0.018399 0.001641 0.003481
0.043676 0.001696 0.000758
0.046405 0.000071 0.001331
-0.011231 0.000680 0.002975
-0.021102 -0.000894 -0.004177
-0.041003 -0.004695 0.000429
0.023455 -0.003021 0.003697
0.045284 -0.002310 0.002101
-0.009707 0.004570 0.001293
-0.019038 -0.001648 0.000578
-0.040665 -0.002081 -0.004363
-0.025863 -0.000102 0.004557
-0.036729 -0.004408 -0.001474
0.018012 -0.000843 0.004063
-0.010517 -0.002539 -0.000010
-0.042200 -0.001696 -0.002600
-0.020963 -0.002240 0.001824
0.029748 0.001848 0.003413
0.029275 -0.001275 0.002792
0.001607 0.001796 -0.002969
-0.034046 0.004848 -0.000494
0.028404 0.003584 -0.003128
0.020109 -0.000118 -0.002720
0.012266 -0.000597 0.004463
-0.002292 0.000148 0.000085
0.026528 0.001543 0.001898
-0.025478 -0.002606 -0.002081
0.015957 -0.002155 -0.002769
0.039991 -0.000061 0.001195
0.039378 0.002189 -0.000097
0.035094 0.004435 -0.002220
-0.027396 -0.003516 0.000155
0.033587 -0.001145 -0.004702
0.049242 0.004151 0.000199
0.003495 -0.001364 0.002110
-0.032983 -0.000209 -0.004649
0.046683 0.003085 -0.002052
-0.029279 0.002362 0.004107
0.030220 -0.003011 0.000104
0.014626 0.000737 0.001425
-0.013919 0.003267 0.000488
-0.028283 -0.003998 0.002784
0.014834 0.000842 -0.003855
-0.021814 0.001626 -0.004711
-0.045221 0.002341 -0.001277
0.031824 0.003190 0.003780
-0.013566 -0.003325 -0.000529
-0.019509 0.004243 -0.000275
-0.021967 -0.002346 -0.001818
-0.019113 -0.001184 0.002089
0.008709 0.001418 0.001563
-0.039203 -0.002643 -0.001163
0.027304 -0.001747 0.000273
-0.027459 -0.002991 0.001030
-0.037777 0.003971 0.000038
0.023438 0.003604 -0.001788
0.048362 0.002718 -0.000371
-0.047664 -0.002631 -0.001449
0.018581 -0.000497 -0.004558
-0.029364 -0.003222 -0.001389
0.025677 -0.003555 -0.001380
0.017776 -0.002136 -0.002635
0.000969 0.002463 0.000096
0.001135 0.002414 -0.003808
-0.002222 0.000154 0.002221
-0.044474 0.002578 0.000969
-0.031359 0.001123 0.000394
0.024817 0.002602 -0.001536
0.036602 -0.000700 0.002857
0.023818 0.002219 -0.001091
-0.007128 0.001508 -0.000002
0.047877 -0.000329 -0.001833
-0.049110 -0.001883 -0.002159
0.012127 -0.002222 0.000533
0.003310 -0.000589 -0.004322
0.045844 0.001037 0.000904
0.019379 -0.001184 0.001069
-0.010749 -0.001195 -0.001140
-0.030646 -0.002388 -0.000221
0.043845 -0.003911 0.001766
-0.007718 0.003425 0.000301
0.022092 -0.002441 -0.003511
-0.027535 -0.000603 0.003524
0.002016 -0.002800 0.003531
0.000649 -0.001077 -0.000060
-0.022596 -0.003242 0.000334
-0.022220 0.003471 0.002259
-0.000416 -0.001035 0.004551
0.010251 0.001433 -0.004759
0.022495 0.001538 -0.004429
-0.001205 0.001558 -0.004465
-0.011571 0.000835 0.000406
-0.047406 0.002100 -0.003055
0.000310 -0.001174 -0.002299
0.027092 0.003244 -0.000028
0.017120 -0.001256 0.002115
0.033136 -0.004001 0.001789
0.009928 -0.000606 0.002485
-0.042637 0.000424 -0.003287
0.028594 -0.000112 0.004338
0.004772 0.001099 -0.002319
0.027996 0.001371 -0.003325
-0.037021 0.002479 -0.001052
0.034170 -0.000826 -0.000352
0.004774 0.001523 0.003488
0.007118 -0.003076 -0.002067
-0.009748 0.001307 -0.000220
0.044281 -0.003408 -0.002330
0.020564 -0.001170 -0.002817
-0.049170 -0.004828 -0.000257
-0.006881 0.002005 0.003933
0.025377 0.001933 -0.003437
-0.029816 -0.002500 0.004041
-0.001211 0.002316 -0.000583
0.027704 0.003799 0.003032
0.002028 0.000318 -0.001426
0.038969 -0.000894 -0.000268
0.011044 -0.001975 0.001557
-0.000908 0.000464 0.003484
0.029017 -0.001168 0.004521
-0.045152 -0.002938 -0.003482
-0.030415 -0.002855 0.001615
-0.019808 -0.003211 0.002113
0.013697 0.004621 0.000829
0.047840 -0.000403 0.000059
-0.039413 0.000218 0.001460
0.003006 0.002828 0.002072
0.001790 -0.002991 -0.002276
-0.046810 -0.004589 -0.000129
-0.001877 -0.002314 0.002191
0.015140 -0.000180 -0.002975
-0.015664 0.003217 0.000807
0.006705 0.004705 0.000597
0.015359 0.004164 -0.000570
0.035188 -0.002581 0.000414
0.008414 -0.002184 -0.002847
0.044632 0.002517 0.000614
0.017359 0.002436 0.002579
-0.040413 0.004741 0.000173
-0.026857 -0.001028 -0.001945
-0.036195 -0.001648 -0.000537
0.046250 0.000501 0.001582
0.040186 -0.004389 -0.001083
-0.019934 0.002596 -0.003879
-0.016861 0.002291 0.003452
0.030807 0.004304 0.001872
0.040734 -0.002041 -0.000317
-0.020153 0.001929 -0.004320
-0.037923 -0.003205 -0.001835
0.045945 -0.001857 -0.003298
-0.024044 0.003657 -0.002921
0.049257 -0.000768 -0.004346
-0.027719 0.002546 -0.004210
-0.002723 0.001137 0.004255
0.014926 -0.000839 0.004278
-0.014422 0.003461 -0.002253
0.036743 0.001470 -0.001747
0.006788 0.000967 0.004572
-0.021387 -0.003813 -0.000255
-0.015388 0.004188 0.000833
-0.049837 0.002482 0.000085
-0.018381 0.001517 0.001002
-0.018315 -0.002439 -0.003024
0.013601 0.001159 0.004593
-0.020043 -0.001238 0.002812
-0.000109 0.004083 0.001477
-0.022974 0.003437 0.001766
-0.012182 0.004276 0.002560
0.012363 0.004656 -0.001247
0.007119 0.002638 -0.000412
-0.000883 0.000596 -0.001117
-0.046860 0.001229 -0.003433
-0.010540 -0.002069 0.000116
-0.038566 0.004575 0.000367
0.023626 -0.001276 0.001441
0.027856 -0.001917 0.002185
0.025773 -0.003646 -0.001925
-0.006905 -0.004156 -0.002050
-0.026911 -0.000269 -0.001492
0.022605 0.000624 -0.003749
0.007763 0.001521 -0.004638
0.042034 -0.000454 0.001612
0.020702 -0.002430 -0.004149
-0.018736 -0.004081 0.002159
-0.000424 -0.002133 0.003824
0.031149 0.000269 0.000138
-0.041977 0.001164 0.003172
-0.030308 0.001708 -0.004063
0.045913 0.003994 -0.001076
0.009130 0.000731 -0.003672
0.013650 -0.002561 -0.003860
0.044596 -0.000497 -0.004623
0.043559 0.003344 0.000121
0.037857 -0.001936 0.004098
-0.029075 -0.002177 0.001391
-0.017788 0.000632 0.001111
0.008342 0.000790 0.000921
-0.039151 -0.003674 0.001019
0.039922 0.000439 0.004189
-0.006472 -0.002074 0.000470
0.038884 0.001595 -0.003297
-0.007967 -0.003290 0.002155
-0.034471 -0.003600 -0.001392
0.003515 0.002176 0.001615
-0.014564 -0.002240 0.003810
0.044087 -0.000888 0.000962
-0.031073 0.002675 -0.002789
-0.046687 -0.002629 0.002778
0.008552 -0.003745 0.000050
0.012105 0.003408 0.001516
-0.017598 0.002568 0.002798
0.018525 -0.002379 0.000354
-0.020352 -0.000043 -0.002698
-0.009010 -0.003403 0.001871
-0.023338 0.000269 -0.003929
-0.048667 -0.002125 -0.002259
0.033292 -0.001295 -0.004439
-0.025490 0.002889 -0.001395
0.004718 -0.002286 -0.000426
-0.045725 0.001668 -0.000251
0.021807 0.000935 -0.004214
-0.000735 0.003045 0.000637
-0.009883 0.004911 -0.000233
0.027162 0.003109 -0.001951
0.016459 0.002784 0.003947
0.029509 -0.004109 0.002622
-0.043019 0.000646 -0.000580
-0.011830 0.001034 0.004741
0.007632 0.000430 -0.004648
0.033840 0.000454 -0.001506
-0.021689 0.004381 -0.001081
0.009391 -0.003011 -0.001169
0.005721 -0.000201 0.003228
-0.037756 -0.004818 0.000733
0.010915 -0.000328 -0.003012
0.037420 0.000262 0.004289
0.026665 -0.004256 0.000654
-0.047102 0.003584 -0.002569
-0.016516 0.003950 -0.001447
-0.037441 -0.000929 0.001674
0.002377 0.003835 -0.003120
0.002924 -0.000151 -0.001585
-0.034176 -0.002750 0.000680
-0.017422 -0.001919 0.000467
0.019147 0.002404 0.002648
-0.024488 -0.000659 0.003521
-0.048633 0.000466 0.001163
-0.005720 -0.003016 0.002541
-0.037535 0.000071 0.002483
0.031289 0.003916 0.002326
0.037240 -0.001224 0.001185
-0.047185 0.001454 -0.000968
-0.003751 -0.001038 0.004366
-0.029260 0.003803 -0.001443
0.020379 -0.001185 -0.003653
0.043992 -0.001774 -0.003130
-0.007618 -0.000123 -0.004546
-0.021873 -0.003878 0.002490
-0.049838 0.002800 -0.003977
-0.019145 -0.003086 0.003097
0.025524 0.003448 0.003357
-0.026629 0.001125 0.002926
0.028439 -0.004976 -0.000298
-0.043625 0.004600 -0.000841
-0.005690 -0.003206 0.001638
0.012262 0.003025 0.002759
-0.017466 -0.000886 -0.003392
-0.038606 -0.000770 0.003183
-0.035582 0.004548 0.002001
0.031716 -0.000362 0.003635
0.033719 0.002327 -0.004161
-0.010872 0.002525 0.003928
0.046864 -0.000687 0.001728
0.031257 -0.000067 -0.003825
0.045359 0.002508 0.003106
0.033724 -0.000993 0.004675
0.042936 -0.000160 0.000343
0.036344 0.000604 -0.003719
0.032785 -0.002490 0.003789
-0.031511 0.002352 0.000882
-0.017715 -0.003910 0.002314
0.017845 -0.002960 0.000373
0.017490 0.000004 -0.003890
0.044824 0.002917 0.003517
-0.005333 0.001940 0.001226
-0.048726 0.001769 -0.000220
0.018827 -0.001463 -0.003778
0.003937 -0.001083 -0.000979
0.021763 0.003371 0.002027
-0.028281 0.001397 0.001323
-0.039808 0.000716 0.001328
0.038526 -0.003306 -0.001238
-0.018373 -0.001305 0.004753
-0.045382 0.000204 -0.003996
-0.023376 0.000857 0.003731
-0.045157 0.003921 -0.001179
0.005173 -0.004819 -0.000228
0.011170 0.001275 -0.003742
0.032590 -0.001165 -0.001057
-0.022400 -0.003521 -0.000746
0.010227 -0.002853 -0.002918
0.019868 -0.004537 0.000058
-0.017353 -0.003229 -0.001469
0.029572 -0.000733 0.001542
0.044952 -0.002725 0.002075
-0.025060 0.001356 -0.001598
-0.025198 -0.000561 0.000273
-0.040328 -0.001709 0.001407
-0.032678 -0.003439 0.002905
0.029663 -0.003554 -0.001771
-0.011147 -0.001530 -0.001814
-0.046907 -0.001912 -0.000367
0.002626 0.003407 -0.002569
0.033881 0.000431 0.004269
-0.048255 -0.001277 0.004606
0.011706 -0.003332 0.002876
0.049448 0.003610 0.002380
-0.016426 0.000867 0.002288
0.022656 -0.002385 0.002222
-0.041255 0.001276 0.001446
-0.027857 -0.001873 -0.001958
-0.003141 0.000375 0.001346
-0.002195 -0.001418 -0.003096
-0.045186 -0.002568 -0.003057
-0.001944 0.003486 -0.000421
-0.013664 0.000095 0.002212
0.021105 0.000768 -0.002644
0.048632 -0.000525 -0.002804
0.036604 0.000793 -0.004011
0.041325 -0.003555 -0.001508
-0.025089 -0.001354 0.003558
-0.044063 -0.000453 0.000464
0.045321 -0.001483 -0.002160
0.020838 0.003743 0.000611
-0.013093 0.000211 0.004542
0.045497 0.004581 0.001928
-0.045551 0.004025 0.001380
0.043405 -0.003406 -0.002664
-0.046896 -0.000905 -0.004680
0.024034 -0.004225 -0.002029
0.041163 -0.001454 -0.002850
-0.021080 0.000338 0.004259
-0.033052 0.003089 0.000875
-0.010068 0.002511 -0.004098
-0.039807 -0.002453 -0.004282
-0.022677 0.001194 -0.003009
-0.013216 0.002500 -0.001582
0.034829 0.004292 0.002561
-0.004725 0.002547 -0.001963
-0.005088 -0.000761 -0.003062
0.012892 -0.001125 -0.003746
-0.049070 -0.000244 -0.001670
-0.034077 -0.000532 0.004861
0.014015 0.001790 -0.000290
-0.021197 -0.001607 -0.004526
0.006326 0.000582 -0.003449
0.020553 -0.002684 0.002440
-0.048917 -0.000695 0.003428
0.019074 -0.001497 -0.000344
-0.007725 -0.001292 0.000726
-0.016300 -0.003331 -0.001929
0.042877 0.002519 0.000076
-0.025428 0.001622 -0.001814
0.025224 -0.004210 0.002639
0.007876 -0.002159 -0.002286
-0.033349 0.004414 -0.000525
-0.045085 -0.001332 -0.003319
-0.013403 0.000871 0.004326
0.020096 -0.000912 -0.003527
0.049819 0.003601 -0.002907
0.006848 -0.002614 0.001881
-0.025663 -0.001562 0.000710
0.044783 0.001570 -0.001638
0.006494 -0.003484 0.002269
-0.020131 0.002137 -0.001299
0.043028 0.002479 0.003129
0.023894 0.002854 -0.002868
-0.015882 0.003018 0.001714
-0.026625 0.001989 -0.002562
-0.013408 -0.001383 0.002813
0.018564 0.003083 0.003137
-0.013958 -0.003072 -0.002296
-0.002739 0.000284 -0.003990
0.041102 0.001309 0.004285
-0.030241 0.001011 0.003645
-0.016391 0.000372 -0.003862
0.047571 -0.002277 0.004411
-0.005453 0.004843 -0.000978
-0.011271 -0.001110 -0.002744
-0.036507 -0.000330 0.003892
-0.017431 -0.001552 0.001086
0.034747 0.003494 0.002525
0.037511 -0.001803 0.003308
-0.014662 0.001514 0.004169
-0.043684 0.001091 -0.000309
-0.021773 0.000218 0.000490
-0.039084 0.001605 0.001831
-0.023292 -0.001900 -0.003253
-0.026255 0.003720 -0.001562
0.025686 -0.001869 0.003973
-0.041008 0.002334 -0.000712
0.038378 -0.003909 -0.001324
-0.044219 -0.000477 0.001795
-0.001229 0.003276 -0.002728
-0.017662 0.001378 0.000238
-0.037856 -0.004706 -0.000810
0.009161 0.000735 -0.001031
0.027906 -0.000892 -0.000816
0.030564 0.002365 -0.003675
-0.048104 0.004383 0.000277
-0.043887 -0.000051 0.003515
-0.039313 -0.002488 0.004075
-0.017103 0.001446 0.000957
-0.045693 0.002553 0.001100
-0.007008 -0.001388 0.000713
0.038227 -0.002562 -0.003722
0.020221 -0.003297 -0.000722
0.006989 0.001233 -0.002933
-0.016058 0.000608 0.004174
-0.039180 -0.001270 -0.003763
0.034610 0.001251 -0.004214
-0.014923 0.002477 0.001595
-0.026530 -0.001096 -0.004433
0.003358 -0.000039 0.000565
0.005696 0.002811 0.001278
0.024861 0.001109 0.004049
0.008953 0.003703 -0.002530
0.013403 0.002611 -0.001076
0.003334 0.002313 0.003135
0.030848 0.003986 -0.002825
0.029046 0.000977 0.001509
-0.009711 0.000194 0.000580
-0.045386 0.002018 0.004152
0.004519 0.001047 -0.004261
-0.033491 -0.001637 0.002500
0.041106 0.002166 -0.002747
-0.005656 0.003324 -0.003673
0.004592 -0.003910 0.002403
0.031174 -0.002669 0.001516
0.046060 0.002716 0.000024
0.007775 0.003079 -0.003260
0.003291 0.000760 0.001236
-0.001302 0.001045 -0.000973
-0.049555 -0.000501 -0.000322
0.029699 0.001679 -0.004618
-0.008129 -0.001270 -0.001261
0.034523 -0.004535 -0.001753
-0.016614 -0.000041 -0.002558
0.024647 -0.000951 -0.000826
-0.017181 0.001439 0.000378
-0.020241 -0.003183 0.001935
-0.036793 0.001321 -0.003284
0.011914 0.003328 -0.003720
-0.001737 0.000292 -0.003619
0.044126 -0.003129 0.001436
-0.010518 0.003996 0.002432
0.016808 0.002866 0.001590
0.008057 0.003931 0.001345
0.027397 -0.001865 -0.002629
-0.027024 0.000792 0.003646
-0.015893 -0.003055 0.001132
0.031255 -0.003385 -0.002781
0.022615 -0.001170 0.003860
-0.001213 0.001593 0.001507
0.034718 0.001283 0.002178
0.035812 0.002063 -0.001546
-0.041780 0.001146 -0.000219
0.023909 -0.002928 -0.001200
0.024850 0.003410 0.001055
0.023765 0.001521 0.000587
-0.022104 -0.001950 -0.001916
0.024380 -0.000291 -0.002305
0.037097 0.001916 0.000659
0.022070 -0.000596 0.003204
0.037474 0.002309 0.003101
-0.025300 0.001796 0.004005
0.014278 -0.004889 0.000669
-0.007394 0.004372 0.000133
0.010039 0.003164 -0.001836
-0.028140 -0.002298 0.000296
0.015714 0.003696 -0.001973
-0.037049 -0.003132 -0.003021
0.012736 0.000923 0.003293
0.004835 -0.002710 0.001897
0.005545 -0.001684 0.000401
-0.009272 0.000121 -0.002380
-0.021208 -0.001152 -0.002243
-0.025444 -0.001586 -0.001872
-0.014548 0.003164 0.000614
0.017715 -0.001607 -0.004656
0.030766 -0.000431 -0.002200
0.023797 -0.003775 0.000815
-0.039600 -0.001128 -0.003050
-0.047402 -0.001144 -0.001815
-0.004389 -0.002879 -0.003908
-0.006049 0.002291 -0.002786
-0.030091 -0.004267 0.001946
-0.033905 0.003865 0.002941
0.025168 0.000648 -0.002682
-0.010856 -0.000567 -0.000163
-0.009343 -0.001589 -0.002248
0.023700 -0.003712 0.001138
0.045103 0.001233 -0.001216
0.017876 0.001584 0.000073
-0.012837 -0.001799 -0.003151
0.048843 0.000297 -0.001597
-0.049764 0.000062 0.003402
0.046459 -0.002767 0.002977
-0.018856 0.000281 0.003441
-0.020335 -0.002209 -0.001666
-0.015277 0.001909 0.002281
-0.038496 0.000642 0.003468
-0.018329 -0.004651 0.000783
0.016329 -0.003414 0.003562
0.026543 -0.004833 -0.001210
0.021181 0.003167 0.001142
-0.036329 0.000754 0.003716
0.002390 0.002649 -0.001766
-0.013181 -0.003578 -0.003347
-0.012932 0.004912 -0.000154
0.031147 0.000742 0.004537
-0.026939 0.000586 0.000672
0.044701 0.000520 0.001882
0.044583 -0.003498 0.000891
-0.023520 0.000816 0.002529
-0.020842 0.003330 -0.003523
0.037341 0.003653 -0.003208
0.036636 -0.003600 -0.001643
0.023547 -0.000566 0.003489
-0.038410 0.002434 -0.001847
-0.000844 -0.000833 0.004313
-0.005970 0.003169 -0.001572
0.013447 -0.000537 -0.001814
0.038758 -0.002028 0.004125
-0.036767 -0.002007 -0.002136
0.030523 -0.001219 0.000789
0.026747 -0.003682 0.001620
0.005367 -0.000641 0.003265
0.034277 0.002049 0.003744
0.010922 -0.004173 -0.001442
-0.022607 0.001114 0.001064
-0.031392 0.000501 0.003842
-0.025799 0.000024 -0.001545
-0.022919 -0.003489 0.001677
0.020968 -0.004038 0.002472
-0.010823 0.001432 -0.002696
-0.023846 0.003225 -0.003625
-0.022752 0.003400 0.002006
-0.040058 0.004627 0.001279
0.026689 -0.003192 0.001629
0.017172 -0.001731 -0.000457
