ply
format ascii 1.0
element vertex 1600
property float x
property float y
property float z
end_header
-0.004469 -0.024550 -0.002182
0.033316 0.020389 -0.006427
-0.044773 -0.012884 0.001325
-0.053323 -0.002848 -0.012104
0.010131 -0.002328 -0.002501
-0.001579 -0.023248 -0.011432
-0.013606 0.013735 -0.002148
-0.013836 0.004452 0.002683
0.035518 -0.024726 0.000162
-0.044140 0.014039 -0.003852
0.060344 -0.017043 -0.001134
0.022900 -0.000733 -0.011062
0.050630 0.004379 0.001421
0.015407 -0.009901 -0.006248
0.014393 -0.024117 -0.009942
-0.011864 0.017528 0.004953
-0.007615 -0.005206 0.005394
0.049925 -0.004729 -0.008116
0.013367 0.018819 -0.008226
0.003148 0.008144 0.009539
0.038375 0.005389 -0.011967
-0.056387 -0.012704 -0.004224
0.004747 0.005967 0.000994
0.046920 -0.015165 -0.012364
0.043874 -0.021531 0.008073
0.035645 -0.011547 0.000810
0.018169 0.021537 -0.007038
-0.002822 -0.022446 0.012150
0.056488 0.022171 -0.005866
0.059521 0.020879 0.010247
-0.019153 -0.016290 -0.011869
-0.031445 -0.015185 -0.003735
0.057949 0.022259 -0.004015
-0.052728 0.007143 0.009027
-0.010147 0.000041 -0.007457
-0.049734 0.008268 0.004439
0.038698 0.016982 -0.010521
-0.059375 0.016577 0.007558
-0.051398 -0.004983 0.005758
-0.056841 0.000357 -0.005191
0.028329 -0.010879 0.010637
0.041191 -0.011087 0.007217
-0.048328 0.015733 -0.000145
-0.048724 0.021257 -0.005049
-0.002662 -0.010593 0.003031
0.057362 -0.014643 -0.011125
0.009561 -0.016204 -0.004925
0.028549 -0.019782 -0.010107
0.001023 -0.021226 0.010518
-0.024247 0.001184 0.000393
0.063689 -0.024367 -0.010795
-0.055523 0.021573 -0.007562
0.018513 -0.019344 0.012479
-0.049459 0.007184 -0.001145
0.020027 0.000084 -0.003534
0.052000 0.013583 0.009700
-0.041334 0.021796 -0.007775
0.004207 0.019589 -0.002468
0.060579 -0.010700 0.008471
0.023356 -0.021074 -0.005767
0.020235 -0.007252 -0.011124
0.052096 0.013022 0.000683
0.052383 0.007908 -0.003308
0.057029 0.007420 0.004236
0.014575 0.014640 -0.006728
-0.007191 0.000820 -0.000390
-0.046539 0.021538 -0.010861
-0.006563 -0.016550 -0.007155
-0.053878 -0.013816 -0.004046
-0.025113 -0.005026 -0.005990
-0.056191 0.001660 -0.000293
0.027660 0.018358 0.001900
-0.020825 0.008967 -0.012434
-0.063677 0.011189 -0.007649
-0.039431 -0.012596 0.007537
0.006343 0.018302 -0.006985
0.016486 0.005505 -0.012275
0.029909 -0.012576 -0.001266
-0.025425 -0.003509 0.003780
-0.055683 -0.007773 0.000131
-0.020454 0.008706 0.003239
0.054279 -0.018976 -0.009622
-0.048339 0.004902 -0.009405
0.015108 0.013897 0.001413
0.015929 -0.015817 0.009690
-0.003183 -0.002675 0.009582
0.043985 0.004256 0.006859
0.041232 0.013403 -0.008627
0.003444 0.013568 0.003709
0.013568 0.015738 -0.002079
-0.058198 -0.022985 -0.011979
0.012913 0.000297 -0.010564
0.008355 0.006055 0.011015
0.012316 0.006397 -0.010983
0.058428 -0.019215 -0.007827
-0.028107 0.017483 -0.005825
0.012759 0.003172 -0.009889
0.007528 0.001880 0.010555
-0.034202 -0.009247 0.010668
-0.047263 -0.022164 -0.000731
-0.044208 -0.016696 -0.008229
-0.037307 0.015759 -0.012194
-0.005499 -0.016331 0.001698
-0.026037 0.023580 -0.011537
-0.021302 0.003576 -0.006164
-0.060793 0.020590 -0.001130
-0.057718 0.009896 -0.001907
-0.053171 -0.009432 0.004971
0.051119 0.009550 -0.009723
0.016292 -0.004607 0.012447
-0.013290 -0.005207 0.011460
0.037750 -0.024574 0.003111
0.013154 -0.010364 -0.010436
0.059362 -0.024103 0.010611
-0.029884 0.001767 0.001093
-0.035322 0.003571 0.004355
0.000952 0.005475 0.010942
-0.006157 0.010407 0.006684
-0.060295 0.007213 0.011524
-0.031396 0.020455 -0.007617
-0.062015 0.014026 0.009301
0.051566 0.022171 0.000298
0.055757 -0.020524 0.010217
-0.028936 -0.007925 0.011672
-0.032687 -0.014890 -0.010360
0.004936 -0.024520 -0.003289
0.007437 -0.012813 0.011203
-0.064027 0.018266 -0.005769
-0.014327 0.020878 -0.000085
-0.014395 0.011098 0.007286
0.033491 -0.013099 0.011959
0.026715 0.012508 -0.009015
-0.007299 -0.008680 0.007911
-0.048756 -0.009643 -0.003550
0.013228 -0.020807 -0.012083
0.000802 0.009540 0.009561
0.028901 -0.013555 -0.006573
0.052640 0.007685 0.007405
-0.038224 -0.005588 0.003043
0.047517 -0.015561 0.008488
0.032324 -0.013192 -0.011407
0.060111 -0.021091 0.004550
0.029017 -0.007665 0.000174
-0.028862 -0.004675 -0.009579
-0.029650 0.004603 -0.008765
0.033945 -0.021566 -0.003730
-0.043246 0.002984 0.010850
0.016292 -0.001351 -0.001348
0.014827 0.023564 0.002873
-0.048847 0.014469 -0.010661
-0.045261 -0.015525 -0.003335
-0.049044 -0.017855 0.010127
-0.048966 0.023391 -0.007777
-0.039432 0.010087 0.002017
-0.015371 0.003993 -0.001488
0.022625 0.017946 0.005568
-0.009241 -0.009474 0.011503
-0.020276 -0.024625 0.011573
0.053844 0.011699 0.000014
-0.047565 0.019565 -0.005012
0.064760 0.015684 0.005844
-0.052283 0.006279 0.011534
-0.012475 -0.013480 0.006684
-0.019861 0.024365 -0.001279
-0.007657 -0.020364 -0.011342
0.057730 0.014790 0.001264
-0.023564 0.022229 -0.007974
-0.025930 -0.022891 0.005554
0.009967 -0.021436 -0.004313
-0.003804 -0.006673 -0.007738
-0.052957 0.009249 -0.005109
-0.008088 0.024695 -0.003037
-0.046132 -0.011420 -0.000336
-0.004799 0.000016 -0.007955
0.031624 0.012386 -0.004425
0.043149 0.007235 -0.003357
-0.004939 -0.008269 0.011669
0.029976 -0.017272 -0.011177
0.017819 -0.021635 0.006902
0.006458 0.009087 -0.012403
0.003771 0.008109 -0.011339
-0.007373 0.022306 0.001725
-0.026391 0.015854 0.002100
0.040919 -0.012296 -0.008327
-0.021033 -0.013546 -0.002961
-0.028174 -0.023169 -0.000665
0.043509 -0.014304 -0.000043
0.055403 0.021281 -0.006146
-0.032172 -0.010236 0.001774
0.017881 0.016857 0.009268
0.002191 0.010430 -0.008204
0.010129 -0.000559 -0.002246
-0.019112 0.013811 -0.009193
0.063448 -0.006110 0.008799
-0.005040 0.008899 -0.000470
-0.023796 0.016217 -0.007945
-0.051782 -0.009183 -0.005536
-0.000224 -0.011321 -0.003498
0.000080 -0.022136 0.009833
0.025788 0.001078 0.007071
0.053038 -0.017121 0.003900
-0.012256 0.014568 -0.001385
0.023047 -0.019088 0.001838
-0.010814 0.005811 -0.009995
0.035496 -0.022760 -0.010315
-0.039782 -0.015284 -0.002684
-0.026926 0.003309 -0.002791
-0.013162 0.020323 -0.009275
0.021717 0.009611 0.006441
-0.056815 0.005338 -0.006504
-0.046728 0.023221 -0.008238
-0.025369 -0.001085 -0.001334
-0.020887 0.015402 0.011069
0.030569 0.023971 -0.007021
0.049159 -0.018463 -0.005950
-0.059957 -0.002657 -0.003782
0.015299 0.012650 -0.011280
0.041138 0.004030 0.001122
0.001602 0.009494 0.006307
0.008560 -0.001224 -0.001754
-0.003160 0.007332 -0.007139
0.014187 0.011463 -0.001020
0.043443 0.006075 -0.004847
-0.058506 -0.009220 0.007428
-0.062085 -0.020115 0.007603
-0.010058 -0.018453 -0.004387
-0.005420 0.016955 -0.002127
-0.021044 -0.018961 -0.002285
-0.063622 -0.016761 0.010994
-0.041644 -0.021476 -0.006224
0.023315 0.021274 -0.000481
-0.033696 -0.005739 0.008737
0.039778 -0.015532 -0.007806
0.006173 0.019283 0.003501
0.027817 -0.005538 -0.007167
-0.004556 0.006495 -0.010581
0.028723 -0.012069 -0.004293
0.050555 -0.000306 -0.005700
-0.046523 -0.015802 -0.006013
0.045784 -0.021133 -0.002141
-0.055154 -0.015605 0.009393
-0.042990 -0.012524 -0.001290
-0.048140 -0.016601 -0.006734
0.041079 0.023807 0.004758
0.040012 0.011556 -0.003040
0.001882 -0.004868 0.003301
-0.036005 0.018731 0.006536
0.023410 0.016367 -0.003152
-0.038283 0.010938 0.011642
0.003416 0.001334 -0.010896
0.049235 -0.006992 0.012086
0.024231 0.022597 0.004815
-0.022523 0.009839 0.012004
0.002888 -0.011342 0.003971
0.014135 -0.013286 0.010142
-0.012759 0.016371 -0.006963
-0.003842 -0.000368 -0.003033
-0.056047 -0.011579 0.003220
-0.016558 0.000092 0.005806
0.061034 -0.016947 -0.003898
0.058987 -0.018801 -0.002567
0.058743 -0.003271 -0.004711
-0.004864 0.004345 -0.003554
-0.034318 -0.021061 -0.011554
-0.038401 -0.013047 0.000475
0.049702 -0.011359 -0.007530
-0.004148 0.003827 -0.002817
0.023814 -0.019664 -0.009310
-0.043396 -0.002040 -0.011151
0.056771 -0.006133 0.008475
-0.006012 0.020361 0.001926
0.007430 -0.006507 -0.011215
0.004578 -0.017678 0.001509
-0.009077 0.023558 -0.010921
-0.011320 -0.012854 -0.008016
0.061837 -0.013541 -0.001564
0.020864 -0.000445 0.009622
0.039337 0.012218 -0.000453
0.034113 0.012490 -0.007117
0.029063 -0.001937 0.007216
0.013914 0.011511 -0.008016
0.026225 0.009559 0.009772
0.039033 0.014312 0.002088
-0.040209 0.004260 -0.001895
-0.028916 -0.023392 0.010681
0.002560 0.004514 -0.012418
0.001383 -0.015616 0.001998
0.057015 -0.021902 0.008972
-0.032090 0.018937 0.010435
-0.052591 -0.024023 -0.001902
-0.050950 -0.009765 0.010813
-0.028533 0.008998 0.001657
0.024255 0.020181 0.008806
-0.018932 0.005555 -0.008937
0.008329 -0.011962 0.000247
-0.006565 -0.004165 0.010118
-0.018003 0.014409 -0.008606
0.005017 0.019584 -0.002866
-0.013340 0.010754 0.012159
-0.005982 -0.017901 0.009552
0.035130 -0.023322 0.005005
0.011885 -0.018349 0.003490
0.030172 0.001522 0.007454
-0.023446 0.008487 0.001171
-0.030507 0.024267 0.000284
-0.026165 0.019060 -0.002777
0.008622 0.013818 0.003858
-0.015572 0.001324 0.005825
0.009392 -0.004689 0.010485
-0.041055 -0.006528 0.010049
-0.049145 0.005071 0.007491
0.009102 -0.014736 -0.002047
-0.061862 0.014344 -0.002389
-0.020643 -0.016877 0.007587
0.048251 -0.013628 -0.000268
0.035417 0.001210 0.005564
-0.057729 0.009716 0.011267
-0.054814 0.013305 0.005663
-0.007633 0.006866 -0.010130
0.033097 -0.000987 0.006551
0.033551 0.002483 0.009929
-0.060668 -0.017064 0.005683
-0.012700 -0.023050 -0.001671
-0.002601 -0.019165 0.008788
-0.054244 -0.006495 0.006545
-0.015427 0.000863 0.011607
-0.035291 0.022161 0.003938
0.051289 -0.000692 0.000454
-0.022107 -0.012128 -0.004372
-0.015241 -0.021858 -0.005485
0.021232 0.008843 0.001564
-0.009077 0.001384 -0.007405
0.042138 -0.022190 -0.003236
0.019119 -0.016812 -0.001030
-0.020726 -0.019125 -0.007643
-0.064944 0.024078 0.012454
0.018238 -0.012964 -0.007041
-0.064528 0.007929 -0.008522
0.052524 0.017168 -0.011538
-0.039054 -0.005570 -0.006049
0.040776 -0.006581 0.007429
-0.029756 -0.017560 -0.001393
0.054214 -0.013459 -0.006574
-0.004039 0.012417 0.009492
-0.044204 0.013092 0.012422
0.048752 -0.009324 -0.006255
0.042114 0.014266 0.011511
0.028342 0.012448 -0.009663
-0.003648 0.021316 0.002490
0.051585 0.001572 0.003163
-0.008111 0.007340 0.007924
0.061265 -0.024203 -0.002182
0.024563 0.006480 -0.006006
-0.000067 0.003730 0.006829
0.016573 0.005913 0.011004
0.053309 0.007350 -0.005811
0.037889 -0.009121 0.009326
-0.053020 -0.021849 -0.005709
0.056647 0.010896 0.004294
-0.024394 -0.004919 -0.000138
0.038297 -0.016596 0.002702
0.037490 0.015621 0.001506
0.001595 0.023643 -0.008895
0.042696 -0.016487 0.004126
-0.048951 0.020452 -0.006075
-0.057040 -0.006487 -0.002652
-0.059784 -0.015327 0.009989
0.061460 0.006299 0.010152
-0.061382 -0.023570 0.000715
-0.042365 -0.010939 0.007791
-0.021071 0.012652 0.007040
-0.064681 -0.009397 -0.000852
0.050308 -0.021048 0.011567
0.010100 -0.006112 0.007092
0.018617 -0.019372 -0.006430
0.039205 0.023957 0.010374
0.009343 0.005618 0.000949
-0.049900 -0.002772 0.011772
0.036721 0.009937 0.006006
-0.011976 0.009137 -0.006635
0.038307 -0.012641 -0.012484
-0.034912 0.023515 -0.007063
-0.044600 -0.008794 0.008285
0.036323 -0.007748 -0.000468
-0.016620 -0.008768 0.009803
0.052415 0.022813 -0.010363
0.020700 -0.010597 0.007122
0.026296 -0.012212 0.005272
-0.008905 0.020387 0.003316
0.042068 -0.015794 -0.005493
0.042773 0.022492 0.011216
-0.017400 -0.010527 0.000583
0.038245 0.015025 0.007973
-0.011911 0.009556 0.007654
-0.043170 0.020802 -0.010551
-0.024118 0.005257 0.009204
0.035889 -0.018113 0.010236
0.006287 0.013345 -0.002573
0.031355 0.011126 -0.000999
-0.043156 -0.008217 0.000938
0.049071 0.000551 0.001397
0.038491 0.004166 -0.005907
0.021609 -0.002238 -0.010949
-0.061085 -0.011238 -0.004296
-0.038467 0.019440 0.004892
0.001215 -0.024953 0.008404
-0.042214 -0.019840 0.007467
-0.034112 0.023958 0.004746
-0.056498 0.020059 0.000933
0.009856 0.016081 -0.011620
-0.062693 0.008985 0.001405
0.020196 0.002976 -0.007109
-0.058077 0.007066 -0.006631
0.022440 0.008779 -0.001242
-0.001475 -0.018713 -0.006904
-0.055783 -0.004349 -0.006032
-0.056077 0.005928 0.011048
0.059878 -0.011885 -0.003821
0.022119 -0.008900 0.002070
-0.059445 -0.007753 0.008026
0.045782 -0.007689 0.006365
-0.054219 -0.016838 -0.002089
0.015485 -0.023258 -0.010689
0.050130 -0.010838 -0.001695
-0.041319 -0.012056 0.002652
-0.034392 0.007658 -0.001319
-0.000851 -0.002573 0.005945
0.021902 -0.005267 0.000016
0.047543 0.002873 -0.011801
0.049898 -0.010904 -0.009155
0.054965 0.016873 0.005908
-0.033265 -0.020624 0.005464
0.022733 -0.003585 -0.011171
0.011660 -0.006080 -0.003948
-0.035003 0.008983 -0.001611
-0.007608 0.015598 0.005293
-0.004353 0.016032 0.005091
-0.004313 0.006649 0.006061
0.025666 -0.003365 -0.008330
0.029571 -0.013743 0.009759
-0.048795 0.016985 0.000269
-0.004031 0.024065 -0.010105
-0.029279 -0.004622 -0.000862
0.042421 0.004447 -0.005846
-0.026384 -0.007631 0.005632
0.034110 -0.003388 -0.009326
0.012685 0.017379 0.000505
-0.010271 0.008133 0.007707
-0.058385 -0.018205 -0.004629
-0.029849 -0.015851 0.008435
-0.049274 -0.007610 0.008336
0.029962 0.003973 0.009650
-0.054783 -0.022273 0.001716
0.024109 -0.018962 -0.008645
0.064065 0.016504 -0.006460
-0.022191 -0.009058 -0.001310
0.033169 -0.008071 -0.006025
0.061124 0.000251 -0.000674
-0.058404 -0.017926 0.012159
-0.010778 -0.000472 0.007204
-0.049345 -0.013631 0.005780
-0.025229 0.017264 0.010899
-0.048062 -0.009571 0.005117
0.003043 -0.016313 0.006067
0.041199 -0.022121 0.010926
0.057828 0.014811 0.006484
-0.009517 -0.012828 -0.001980
-0.028722 -0.003811 0.004346
-0.019528 0.020132 0.006228
0.007736 0.013489 0.001829
0.004835 0.002960 -0.007793
-0.006973 0.000726 -0.008377
0.047480 0.015474 -0.011012
-0.029719 0.013052 -0.009485
-0.028166 0.000990 0.002833
-0.006557 -0.010986 0.012229
0.039004 -0.008192 -0.001149
-0.033655 0.004693 0.003693
0.055531 -0.020323 -0.002629
0.012595 -0.021820 -0.009069
0.041047 -0.002254 -0.002799
0.061523 -0.018694 -0.010347
0.042160 -0.024228 0.011052
0.053528 -0.009783 -0.005526
-0.022953 0.020584 -0.011630
-0.011245 0.011536 0.001072
0.036205 0.004861 -0.005588
-0.028563 0.002197 -0.007419
0.017554 -0.008170 -0.008217
-0.048969 0.009300 0.000171
0.063430 0.024010 0.006483
-0.020764 0.001064 0.001988
0.010062 0.012590 -0.006999
0.006187 0.000270 0.009057
-0.023132 -0.003599 -0.010659
0.061340 0.016544 0.007895
-0.052183 0.011103 0.012148
0.025837 0.016901 0.004874
-0.002734 -0.005770 0.010110
0.012943 0.015101 0.000187
-0.050726 -0.015244 0.000784
0.015058 -0.012751 0.006356
-0.013296 0.024946 0.003689
-0.028936 -0.003317 -0.001847
-0.040967 -0.022649 -0.009129
-0.011687 -0.014715 -0.004105
-0.003028 -0.006532 0.005439
-0.032911 0.021442 0.005139
-0.030501 -0.015610 0.004268
0.023761 0.017932 -0.000637
-0.001227 0.010070 -0.006094
-0.035868 0.002346 -0.003426
-0.006149 -0.009686 0.010854
-0.031548 -0.009622 0.006214
-0.019712 -0.022115 0.004784
-0.050057 -0.016300 0.010947
-0.059809 0.016140 -0.009060
-0.050722 0.017608 0.009821
0.043785 -0.024733 0.008101
-0.041683 0.016723 0.000594
0.005847 0.017193 -0.003027
0.028731 -0.018227 -0.001168
-0.053362 0.011478 -0.002221
-0.031972 0.020226 0.004648
-0.035425 0.005471 0.009742
0.025886 0.001159 -0.006704
0.015204 -0.010883 0.003860
0.019319 -0.011393 -0.000810
0.029052 0.019162 0.001400
0.064812 -0.000502 -0.001381
0.019101 -0.010347 0.000297
-0.027315 0.007395 0.004100
0.057098 -0.013904 0.000706
-0.028364 -0.010162 0.010387
0.060234 0.004809 0.009822
-0.042679 -0.006653 0.008976
0.006386 0.007940 0.006957
-0.018176 -0.006507 0.006136
-0.035858 -0.000192 0.012415
0.051882 -0.008484 -0.004878
0.039492 -0.000579 0.009037
-0.055620 0.012590 -0.010495
0.041271 0.014070 0.000137
0.031027 -0.010117 0.008936
-0.059499 -0.019575 0.002758
-0.012293 0.018299 -0.002173
-0.016161 0.005121 -0.004044
-0.062993 -0.015770 0.008132
-0.028604 -0.011450 -0.010829
0.037647 -0.021693 0.009168
0.041199 -0.020399 0.009001
0.035932 -0.005081 0.005023
-0.019572 0.003981 -0.012250
-0.005755 -0.007115 -0.003060
-0.026140 -0.023080 -0.008240
0.062665 0.013235 -0.009623
0.038690 -0.006406 0.005417
-0.023701 -0.022191 -0.011262
-0.040984 0.003375 0.001313
-0.043864 -0.013960 -0.004098
0.021290 -0.018090 0.010887
-0.059013 0.001753 0.012295
-0.034772 0.010874 -0.009900
-0.036370 -0.021804 -0.003339
0.033648 0.014753 -0.006817
0.023099 0.021665 -0.011932
-0.026975 0.013673 -0.004374
-0.057371 -0.019835 -0.007420
0.001304 -0.023150 0.002738
0.007337 0.008798 -0.000134
0.024685 0.023804 -0.005975
0.005574 -0.007717 -0.003188
-0.023311 0.018070 -0.002440
-0.061211 -0.011412 -0.004198
0.022377 0.022970 -0.011050
0.035960 0.010185 0.010772
-0.005643 0.020056 -0.008748
-0.051481 0.014173 -0.010853
0.060342 -0.007197 -0.001192
0.016899 0.007695 0.012134
0.061515 0.023526 -0.002979
0.041923 -0.004557 -0.002682
-0.013980 -0.008975 -0.011124
0.021094 0.016194 0.003836
0.055922 -0.015275 0.012123
0.001505 0.016036 0.011241
0.024791 0.005241 0.002187
0.002583 -0.012356 0.005905
0.041013 -0.006817 0.010531
0.004062 0.013187 -0.005190
-0.022343 0.010486 -0.000789
0.028401 -0.019766 -0.004569
-0.027541 0.019382 0.008220
-0.034748 -0.014805 -0.001104
0.013520 0.008855 0.005062
-0.003141 -0.003103 0.009274
-0.024106 -0.024741 0.001292
-0.009956 -0.020139 -0.005009
-0.007618 0.011435 0.007189
0.055608 0.011032 0.006654
-0.022971 0.014327 -0.010714
0.048476 0.013242 0.010859
-0.016827 -0.024305 -0.008700
0.028633 0.017876 0.008978
0.061636 -0.000313 0.008501
-0.058185 0.019826 0.004621
-0.024958 -0.004361 0.010103
-0.032959 0.006790 -0.011715
0.039352 -0.014560 -0.001231
0.010276 -0.018946 -0.009336
0.046946 0.018870 0.009401
-0.044518 -0.017598 0.011262
-0.028054 -0.007809 0.009908
-0.021456 -0.011043 0.000075
0.046520 0.009299 0.006983
-0.063105 -0.001455 -0.001469
-0.020596 0.012196 0.006942
-0.062842 -0.010488 0.008123
-0.008392 0.007871 -0.008908
0.001949 -0.015066 0.011877
-0.017783 0.003870 -0.003217
0.047855 0.000536 0.009790
0.051527 0.003522 -0.006218
0.020552 0.005498 -0.010033
0.029040 0.019738 -0.011900
0.063685 0.021205 -0.001750
-0.036238 0.020073 -0.001459
-0.029262 -0.016979 -0.009862
0.033293 0.016244 -0.002859
-0.020546 0.017460 0.004123
-0.032796 0.018719 -0.000155
0.007359 0.016863 0.010362
-0.000152 -0.011657 -0.009240
0.063697 0.001141 -0.001612
-0.042483 0.003849 0.003987
-0.044295 -0.005101 -0.008078
0.015275 -0.008708 0.011029
-0.035760 0.014570 0.002062
0.059274 -0.023333 0.001291
-0.034171 0.015544 0.004658
-0.018026 0.010795 0.003685
0.046277 0.022808 -0.005487
-0.003166 0.023220 0.003402
-0.018004 0.013333 0.000091
0.022141 0.024217 -0.002403
0.033355 0.024146 0.012374
0.005787 -0.002320 0.007187
-0.048883 -0.013216 -0.003271
-0.055648 0.011617 -0.002641
-0.030718 -0.003563 0.009671
-0.018209 -0.001656 -0.002842
-0.048607 -0.013450 0.011390
0.014520 -0.020345 0.008443
0.039899 0.017896 0.003781
-0.031909 -0.001295 0.003003
-0.030058 -0.001120 0.009413
0.008483 -0.004335 -0.002806
0.031356 0.013335 0.011879
-0.004141 0.012056 -0.006298
-0.040737 0.024724 0.011921
-0.030396 -0.012601 0.004158
-0.035122 0.006571 0.000609
0.045817 -0.010732 0.007049
-0.061991 0.024176 0.006765
-0.057354 0.022480 -0.011934
-0.017584 -0.017420 0.005072
0.015292 -0.010364 0.006867
0.058465 0.003053 0.001934
-0.022159 -0.018597 -0.000724
0.044269 0.016913 -0.001030
-0.064126 -0.023939 0.011820
-0.062019 0.013840 0.000653
0.051269 -0.001288 -0.009714
-0.058647 -0.014688 -0.011258
-0.061406 -0.003178 0.009498
-0.063072 0.024885 0.003981
-0.021140 -0.023170 0.011882
-0.043108 -0.010336 0.000051
-0.013404 0.014467 -0.006391
0.060603 -0.010466 0.008263
0.024600 0.012406 -0.006108
0.006675 -0.017863 -0.004964
-0.016698 -0.019975 -0.011374
0.023555 0.020381 0.010000
0.044354 -0.022619 0.010408
0.046851 -0.002615 -0.000680
0.047777 -0.021225 0.000513
-0.030002 0.004200 -0.006842
-0.053298 0.004877 0.002561
-0.041027 0.023744 -0.006669
0.049544 0.008350 0.010361
0.063695 -0.015036 0.010875
-0.023946 0.016583 -0.003473
-0.008327 0.006828 -0.008645
-0.041146 0.000623 -0.005442
-0.040285 0.016449 0.001694
-0.054554 -0.009455 -0.006626
0.028472 -0.007077 -0.003141
-0.053445 -0.002116 -0.002657
-0.003166 -0.015297 -0.001352
-0.016121 0.015179 -0.010727
0.003764 0.022936 -0.004653
-0.031265 -0.008330 -0.004552
-0.026440 -0.016368 -0.000325
-0.033941 0.014846 -0.001157
-0.054014 -0.006625 -0.007742
-0.054364 0.018745 -0.004071
-0.042249 -0.006604 -0.001726
-0.056929 0.015431 0.011033
-0.038095 0.010624 -0.010595
0.022323 -0.023645 0.000436
0.054273 -0.010616 -0.008346
-0.019387 0.001713 -0.005639
0.047667 -0.018050 0.001526
-0.040049 -0.022355 0.010954
-0.037785 -0.017205 0.006963
-0.049769 0.007139 -0.010978
0.053951 -0.007425 -0.002676
-0.021561 0.006546 -0.012045
-0.022983 -0.009706 -0.009359
-0.005911 -0.024196 -0.009562
0.053267 -0.011246 -0.007805
-0.060046 -0.000958 0.006212
-0.003520 -0.009003 0.009340
-0.053752 0.008392 0.008394
-0.016662 0.019050 0.006053
-0.028214 0.004529 0.003337
0.036818 0.022628 -0.011786
0.055755 0.020082 -0.010222
-0.006125 -0.018696 -0.009151
-0.037243 -0.018627 -0.005131
-0.003893 0.024727 -0.002927
-0.033305 0.017246 -0.011577
0.024999 0.002097 0.012029
-0.007899 0.009282 0.011870
0.047828 0.001089 0.010108
-0.010675 -0.023589 -0.009552
0.060612 -0.004845 -0.002024
0.064651 0.011290 0.004285
0.025792 -0.005613 -0.010349
-0.005971 0.020039 -0.001773
-0.047964 0.008856 0.003732
0.008055 0.006831 -0.001632
0.032961 0.003877 -0.001215
-0.011660 -0.020563 -0.008729
-0.032585 -0.003665 -0.011944
-0.050222 0.007477 -0.008716
-0.046069 0.011066 -0.011471
0.060640 -0.006807 0.007186
-0.005147 -0.010521 -0.003282
-0.009328 -0.018300 -0.002116
-0.034109 -0.023535 -0.008906
-0.042640 -0.008593 -0.004201
-0.015942 0.004572 -0.007677
-0.033015 0.014476 -0.005786
0.043109 -0.000110 -0.010748
0.051819 0.018851 0.005205
0.064824 -0.015483 0.011614
0.016797 -0.007719 0.010541
-0.052310 -0.009916 -0.000625
-0.029660 -0.020077 0.010121
0.034172 0.003161 -0.000748
0.015097 -0.011602 -0.005927
0.053724 0.020376 0.011332
0.031338 0.019014 -0.005222
0.028904 0.023571 0.011266
-0.045252 0.006523 -0.001480
0.027313 -0.022036 -0.003173
0.049967 0.007877 -0.011201
0.051656 -0.019771 0.004266
0.061511 -0.007999 0.007856
-0.025171 0.012882 0.008956
0.047051 -0.020437 -0.007127
0.050649 -0.002943 -0.008796
-0.029237 -0.015411 0.002627
-0.040321 0.002339 0.004801
-0.042934 -0.002465 -0.011474
0.007961 -0.011092 -0.008761
0.012618 -0.014821 -0.002313
-0.014574 -0.020374 -0.012004
-0.024095 -0.019533 0.003142
-0.052999 0.022121 0.010545
-0.022404 0.002388 0.002639
-0.046638 -0.003485 -0.003388
0.004278 0.021082 0.008904
0.030815 0.015482 -0.005071
0.029660 -0.018760 0.008794
-0.007799 -0.022524 -0.007284
-0.048590 0.003059 0.008048
-0.021067 0.000133 0.012354
0.020027 -0.001047 -0.003809
-0.032337 0.022564 0.003318
-0.063557 -0.013555 -0.011223
-0.048627 -0.011725 0.010488
0.064378 -0.011707 0.005029
-0.004773 0.012379 0.010456
0.042911 -0.004775 -0.006856
0.023397 0.016708 0.009235
0.046004 -0.000839 0.003156
-0.049327 -0.023842 -0.012168
-0.008320 -0.021985 -0.007551
0.004723 -0.016136 -0.012453
-0.019139 -0.024327 0.011961
0.000488 -0.022793 -0.002548
0.058986 -0.015956 0.002525
0.055556 -0.014461 -0.006962
0.007665 0.024550 -0.010548
-0.061669 -0.000681 0.008030
-0.050567 0.017953 0.008635
0.061683 0.003261 -0.007098
-0.020730 -0.017385 0.009467
0.012502 -0.023745 0.001169
0.062179 -0.021147 0.006889
0.027368 0.022165 0.003531
-0.001034 -0.016417 -0.008516
0.037538 0.019815 0.009332
-0.021136 -0.000346 -0.007749
0.016983 -0.020140 -0.001258
0.020898 0.016060 -0.004949
0.018569 -0.000427 -0.003652
-0.053995 0.004341 -0.006157
0.056189 -0.018367 -0.008070
0.036851 -0.016511 -0.007934
-0.004332 -0.002227 -0.012378
0.029994 -0.000149 0.012487
-0.023615 0.012742 -0.007988
-0.050455 -0.008370 -0.004044
-0.061059 -0.015795 -0.006806
-0.053401 0.000341 -0.005640
-0.021671 0.002212 -0.008409
0.014901 0.011558 0.001650
0.062198 -0.011156 -0.010495
-0.022284 0.022779 0.006120
0.039532 -0.000881 -0.008632
0.063948 0.015327 -0.006908
0.026778 -0.021930 0.010166
0.031647 -0.024069 0.010425
0.018647 -0.000121 -0.004859
-0.044170 -0.007198 -0.010041
0.059229 0.015817 -0.001036
-0.032438 0.023073 -0.007199
-0.017952 0.002552 0.011992
-0.053436 -0.014923 0.003155
-0.043797 -0.018052 -0.004985
0.064084 0.012551 -0.005633
-0.052977 -0.008655 -0.010484
-0.025227 0.015551 0.007422
-0.058097 -0.001789 0.009582
0.014555 0.010653 0.009326
-0.002546 0.012463 -0.010799
-0.013751 -0.015057 -0.009572
-0.015820 0.001929 -0.000790
-0.025474 0.017728 -0.009383
-0.055454 -0.016372 0.011724
0.030897 -0.022607 0.002238
0.004316 -0.013187 -0.010812
0.046912 0.009677 -0.003731
-0.009898 -0.013121 0.002094
0.023015 -0.018475 0.012067
-0.031171 0.022989 -0.000110
-0.030915 -0.015347 0.008038
0.005221 -0.000394 -0.009190
-0.033931 0.007668 -0.010945
-0.002070 -0.017710 0.001586
-0.004024 -0.005580 0.010367
-0.008782 -0.023125 0.000991
-0.057553 0.012411 0.004318
-0.006581 -0.018569 0.010383
0.007206 0.023343 -0.002540
0.028737 -0.001663 -0.000147
0.000283 0.006120 0.003232
-0.001472 -0.010528 -0.007569
-0.024059 -0.010155 0.004156
-0.063556 0.010160 -0.010391
0.029378 -0.014022 0.004546
0.041617 -0.010675 -0.001331
0.001999 0.021337 0.011957
-0.063918 -0.008853 -0.010318
0.061091 0.017502 -0.011842
-0.017535 -0.019038 -0.010150
-0.037339 -0.001630 0.006684
-0.016037 0.024249 0.004677
0.048356 -0.012672 -0.006686
0.054623 0.006838 -0.002255
-0.005147 0.024887 -0.001979
-0.011447 0.016885 -0.004382
0.051952 0.010269 -0.010388
-0.012657 0.007843 0.011442
-0.027412 0.022226 -0.005702
-0.028829 -0.009413 -0.002007
0.061333 -0.015749 -0.010128
0.051438 0.011457 -0.004300
0.051956 -0.006325 -0.003572
0.054720 0.006949 0.009806
-0.006848 0.019230 0.001110
0.060883 0.000228 -0.010859
0.032010 0.016264 0.009438
0.057090 -0.017241 -0.003198
-0.040268 -0.022067 -0.003349
-0.043103 0.014403 -0.008376
-0.037205 -0.010415 0.003429
-0.005006 0.004763 0.000308
0.061556 -0.008976 0.012342
0.016198 0.018319 0.012043
-0.023604 0.015267 -0.001256
0.025412 0.003969 0.004341
-0.041461 -0.020061 0.007746
0.062771 0.002971 0.003510
-0.049445 -0.024572 -0.006443
-0.040412 -0.013513 -0.008134
-0.005094 0.019679 -0.010683
0.062563 0.024895 -0.006363
-0.017566 0.017882 0.009619
0.019265 0.024552 0.004512
-0.045029 -0.009429 0.000447
0.019678 -0.006698 0.009816
-0.033810 0.018935 0.011372
0.057293 -0.022027 0.002448
-0.040899 -0.004915 -0.012209
-0.047994 -0.002107 0.000009
-0.015011 -0.011036 0.010725
-0.004118 0.020405 -0.005845
0.058916 -0.006675 0.007154
-0.011850 -0.016556 0.004202
0.002041 -0.000529 -0.000117
0.033766 0.015474 0.002580
0.054611 0.019569 0.003978
0.043852 0.000256 0.003795
0.009696 0.001393 0.010974
0.020093 0.013758 -0.011926
-0.054617 -0.010459 0.011332
-0.003155 -0.022147 0.005161
-0.034677 -0.005303 -0.001087
-0.006271 -0.015240 -0.004140
-0.018444 -0.015592 -0.002662
0.011286 0.000296 0.011259
0.048504 -0.003820 -0.012019
0.039781 -0.006716 -0.004396
-0.040662 -0.000773 -0.011364
-0.037819 -0.023767 -0.005879
0.012084 -0.021261 0.005433
0.000623 -0.017023 0.000442
-0.037612 -0.006024 -0.004526
0.049562 0.007715 -0.002374
0.049606 0.001913 0.012152
0.016377 -0.012009 -0.011385
-0.014872 0.010235 0.009570
-0.058425 -0.002215 0.009862
-0.030808 -0.016541 -0.007954
0.049562 -0.007632 -0.007179
-0.015157 0.012025 -0.006937
-0.045624 -0.024903 0.003814
-0.027504 -0.018101 0.011562
0.050622 -0.010707 -0.009817
0.054735 -0.016505 0.004440
0.014771 0.013901 -0.011312
-0.039696 -0.023078 -0.011368
-0.055621 -0.021266 0.005181
-0.061380 -0.012971 0.003819
-0.039706 0.012572 -0.011475
-0.007649 0.008349 0.004800
0.002381 0.012774 0.007575
-0.045647 0.012458 0.006390
0.045797 0.014267 0.011628
0.000082 0.007275 -0.001660
0.042754 0.006187 -0.002936
-0.045326 0.024254 0.010384
0.042582 -0.003512 0.007226
-0.052705 -0.023842 -0.002878
-0.015941 0.020048 0.006297
-0.009742 -0.023565 -0.007904
0.009187 0.003809 0.003711
-0.063945 -0.018353 0.002343
0.031567 0.012053 -0.003324
0.020389 -0.013653 -0.003503
-0.034064 0.003860 0.002893
0.062855 0.014726 0.004239
-0.037958 0.016623 -0.010020
0.028468 -0.024337 -0.012089
-0.021570 -0.024252 -0.002395
0.015879 -0.023679 -0.006197
0.003302 -0.014884 0.004571
-0.036895 0.024748 -0.001602
0.047696 -0.008899 -0.006736
0.056435 -0.018534 -0.005145
-0.005296 0.004580 -0.011970
0.020271 -0.011075 0.010561
-0.008307 -0.009935 0.004850
0.006392 0.006383 0.003999
-0.044835 -0.002938 0.001958
0.040780 -0.003169 0.002104
0.011460 -0.011260 -0.009996
0.046037 0.004735 -0.009566
-0.005065 0.006937 -0.010973
0.023785 0.008112 0.007126
-0.044368 0.017071 0.003791
-0.028383 0.002655 0.009082
-0.010162 0.000040 -0.010102
0.057839 -0.006282 0.010766
0.020638 0.009531 0.002542
-0.051675 0.010331 0.009359
0.020787 0.021248 -0.004344
-0.023484 0.014431 0.001794
0.017782 -0.014173 0.009881
-0.032782 -0.023891 0.003495
-0.063310 -0.008097 -0.003263
-0.015011 -0.016512 0.001590
0.007034 -0.017286 -0.005400
-0.038118 0.004732 -0.008355
0.057377 -0.000477 -0.003621
-0.016929 -0.021010 -0.004916
-0.002082 0.010069 0.006128
-0.013536 -0.007468 -0.004778
-0.026672 0.022561 -0.003649
0.063237 0.003092 -0.011243
-0.046204 0.001980 0.000664
0.016947 -0.020795 -0.006600
0.040930 -0.015651 0.003447
-0.049178 -0.001991 -0.006752
-0.018269 -0.017943 0.008612
-0.032247 0.001210 0.007135
0.008809 0.004770 -0.004678
-0.060357 0.002606 -0.011856
0.004073 -0.004521 0.001957
0.022998 -0.009007 0.007604
0.030687 -0.009597 0.009611
0.014210 -0.018127 0.001217
0.025026 0.023631 -0.010108
-0.018777 0.005601 -0.011397
-0.014297 -0.005652 -0.011735
-0.025684 -0.003249 -0.004564
0.001075 -0.005797 -0.005644
0.014849 -0.012522 -0.006260
-0.047362 -0.019764 -0.000065
-0.021105 -0.022032 0.011996
-0.046361 0.002800 -0.012021
0.064188 -0.008665 -0.004608
0.033206 -0.003871 0.002475
0.051728 -0.005193 -0.002546
-0.022136 0.015464 -0.007484
0.007830 -0.023384 -0.000555
-0.004531 0.014649 0.005013
-0.031747 0.023397 -0.005346
0.005932 0.020863 -0.001845
-0.004333 -0.012895 0.000140
0.039506 0.000237 0.007214
0.044777 0.000240 0.008459
0.033615 -0.004901 0.007464
0.045024 -0.016505 0.000627
-0.012811 0.022945 0.011713
0.017829 -0.007211 0.001742
-0.026678 -0.016271 0.007453
0.062096 0.008343 0.002213
-0.007515 -0.009458 0.010180
0.020604 0.015081 -0.012094
-0.012128 0.018252 0.007382
0.039034 -0.009641 0.006263
-0.023489 -0.001455 -0.001914
0.012093 0.013765 0.008216
0.006005 0.024587 0.005867
0.031316 -0.023902 -0.000498
-0.051483 -0.008778 -0.008869
-0.025735 -0.024749 0.000276
0.044947 0.019931 -0.002483
-0.032485 0.011271 0.002031
0.021840 0.002335 0.012153
0.002851 0.001787 -0.009517
-0.052808 -0.020549 -0.010875
-0.041337 -0.010924 -0.004136
0.054539 0.000491 0.007905
-0.045899 -0.018766 0.001709
0.028687 -0.013118 -0.008826
0.044423 0.023929 0.000164
-0.031739 0.006381 0.011849
0.035079 0.022603 0.001080
-0.006946 0.006047 -0.007199
0.054302 0.005464 0.002906
0.045459 -0.012999 -0.012278
-0.031175 -0.000826 0.001318
-0.054372 -0.014486 -0.003843
-0.018221 -0.003531 0.006192
-0.026318 0.021261 -0.010062
0.062578 -0.002849 0.011338
0.057537 0.022396 -0.008354
-0.028334 0.017357 0.005217
-0.042938 0.019278 0.008528
-0.042569 0.020200 -0.004586
0.015342 -0.023881 0.008980
-0.036543 -0.005252 -0.009247
-0.037705 -0.008916 0.011232
0.055806 0.019580 -0.007855
0.054381 -0.015113 -0.002821
-0.047838 0.006678 0.010720
0.042443 0.021637 -0.006826
0.034342 -0.020098 -0.007897
0.032392 0.016020 0.011403
0.040079 -0.018782 0.003142
0.048139 0.015430 -0.006227
-0.062400 -0.004449 -0.002313
0.037412 0.012595 0.011824
-0.033418 0.001996 -0.004968
0.030369 0.005931 -0.008423
-0.003050 -0.002081 -0.000460
-0.024624 0.004964 0.002027
-0.061242 0.022133 -0.011017
-0.031872 0.015419 -0.008656
-0.012173 -0.003654 0.004258
0.019812 -0.006934 0.011476
0.037547 0.009993 0.009793
0.062069 0.007664 -0.009081
-0.017670 0.011389 0.009382
-0.048698 0.010700 -0.001019
-0.010944 -0.008163 0.011771
-0.014972 -0.021112 0.001970
-0.062122 -0.012210 -0.001971
0.032148 -0.012837 0.010999
0.008165 -0.015579 0.010764
0.036572 0.013952 -0.001030
-0.062134 0.003093 -0.006650
0.022879 -0.003674 -0.003502
-0.055174 0.022076 -0.009799
0.008112 -0.013609 -0.008494
-0.034811 -0.014615 -0.008002
0.055112 -0.003995 -0.008100
-0.019761 -0.017035 0.001270
-0.054750 -0.009730 -0.009231
-0.035735 -0.022568 0.001126
0.060267 -0.020397 0.003743
-0.010241 0.002456 0.003909
0.031920 -0.000856 -0.005452
-0.019304 0.007744 -0.003527
0.017554 -0.020051 0.010273
0.029521 -0.024077 -0.007226
-0.028450 0.008637 -0.008102
0.027395 -0.020026 -0.009573
-0.058594 -0.013405 -0.002224
-0.063694 -0.005838 -0.002065
0.053317 -0.000271 -0.005492
-0.054323 0.022784 0.004811
0.001360 -0.017504 -0.009227
-0.052590 -0.010497 -0.009644
-0.061950 0.023515 0.010317
-0.055943 -0.024218 -0.008133
0.056881 -0.011270 -0.004490
0.060657 -0.020990 0.005271
0.035354 -0.016353 -0.002739
0.044215 -0.001844 -0.000488
0.034876 0.002508 0.004751
0.050668 0.014647 -0.005335
-0.050722 -0.005864 0.012155
0.051562 0.024945 -0.008773
-0.005024 0.003801 -0.006828
0.003549 -0.015745 -0.002983
-0.012107 0.023512 -0.010769
-0.009049 -0.017016 -0.004151
-0.014570 0.013226 0.004393
-0.027684 0.011346 0.003177
0.056619 0.002630 -0.000135
0.016125 -0.010071 -0.009901
0.043909 -0.015159 -0.004470
-0.045174 0.001057 0.005010
-0.024443 0.016809 -0.008693
0.063192 -0.023612 -0.002576
0.001656 -0.014434 0.006670
0.005050 -0.024353 -0.004076
-0.042343 -0.011262 0.001073
-0.015115 -0.006770 0.009706
-0.063825 0.000969 -0.009048
-0.053407 0.005490 0.003005
0.009314 -0.020732 0.008623
0.011877 -0.023634 0.002062
0.030267 0.009773 -0.006654
-0.012931 0.017001 -0.009556
0.062995 0.017508 0.007716
-0.038958 -0.018103 0.007253
-0.030250 -0.019011 0.004651
0.015819 -0.008185 0.010955
-0.024082 -0.018848 -0.001506
-0.043786 0.019116 -0.008192
0.026131 -0.004933 0.011506
0.008778 -0.012769 0.003606
-0.028175 0.013165 -0.004003
-0.061355 -0.021650 0.011152
0.052594 -0.020055 -0.007243
-0.027090 -0.019327 0.008275
0.040514 -0.018497 -0.003823
-0.000004 0.008355 0.011133
-0.016281 0.015035 0.007901
0.064676 -0.024775 -0.009671
-0.064916 0.012618 0.007877
0.055647 -0.022323 -0.002331
-0.060954 0.020609 -0.007170
0.040068 0.005728 0.002185
0.060000 0.015608 0.003858
-0.056496 -0.007288 0.001577
0.051375 0.005237 -0.005084
0.017475 0.008966 -0.007609
-0.013518 0.018859 -0.010457
0.056558 0.015303 0.008971
-0.047945 0.001559 0.010300
-0.033056 0.018577 -0.003855
0.035977 0.021808 0.000950
-0.060060 0.000953 0.006623
-0.022400 -0.019069 0.008809
0.029404 -0.005107 0.011973
-0.040132 0.016275 -0.011382
0.002840 0.006244 -0.003111
0.009606 0.012130 0.009624
-0.002105 -0.019715 0.005353
-0.064245 -0.021984 -0.010557
0.027223 -0.015455 0.001428
-0.032212 0.002943 0.010111
0.002480 -0.022757 -0.004050
0.018889 0.011983 0.006250
0.010686 -0.021775 -0.010582
0.036533 0.020050 -0.009986
-0.009136 -0.009255 -0.004819
-0.017747 0.002700 -0.004597
-0.063623 -0.013662 0.012282
0.018849 0.002674 -0.011212
0.049586 0.003529 -0.008966
0.000549 -0.013786 -0.004349
0.036435 -0.010544 -0.011702
-0.026777 -0.015036 0.002271
-0.033909 0.005326 0.007098
-0.027723 -0.011687 0.011277
0.064914 0.017940 -0.007571
0.000217 -0.001975 0.007248
-0.041059 0.018198 0.003402
-0.059897 -0.022640 -0.007927
-0.028251 -0.003469 -0.002619
-0.001805 -0.021633 0.000093
0.024137 0.021973 0.008743
0.060199 0.005545 0.004099
0.036436 -0.002989 -0.009878
0.028332 -0.012406 -0.007743
-0.026419 -0.010902 -0.005728
0.004513 0.023834 0.008781
-0.060636 0.023813 0.006869
0.048111 -0.013436 0.002079
-0.034383 -0.005198 -0.002069
-0.058660 -0.004626 0.003989
-0.030555 -0.023377 -0.009930
0.061119 -0.010589 -0.009396
0.045785 0.008459 0.011661
0.033577 0.023995 0.004547
0.014882 -0.004955 0.011114
0.046141 0.019693 0.002720
-0.008910 -0.005188 0.002878
-0.027430 -0.022639 -0.007546
0.020777 0.008402 0.004021
0.004817 0.010574 -0.006507
-0.021929 -0.018267 -0.006312
0.042756 -0.000173 0.005062
0.054669 -0.006315 -0.011200
0.028857 -0.020087 0.011135
-0.009403 0.009217 0.011453
0.001479 -0.024121 -0.010152
-0.039775 -0.004313 0.007715
0.012770 0.018318 -0.011745
-0.006749 0.001896 0.001072
0.042590 0.014755 -0.006084
-0.030068 -0.012125 -0.001788
0.034337 -0.019373 0.010942
0.011411 0.005721 0.004178
-0.043836 -0.017605 -0.000859
0.052753 -0.022884 -0.010410
-0.022693 -0.012707 -0.005148
0.026497 -0.013594 -0.004562
0.028393 0.014437 0.003242
-0.012020 0.001499 0.010610
0.022465 -0.013866 0.000477
-0.039144 0.013510 0.009106
-0.051488 -0.019789 -0.002710
0.038350 -0.005361 0.005526
0.024247 -0.008047 0.006572
-0.002193 -0.011745 0.003416
-0.063974 -0.008994 -0.007628
0.014858 -0.002024 0.002941
-0.051905 -0.018271 -0.003544
-0.030410 -0.008130 0.003130
-0.009134 -0.008961 0.006412
0.055230 -0.019441 0.011688
0.048068 0.020549 0.004669
0.061861 0.007209 -0.008949
-0.009891 -0.003289 -0.006002
0.027849 -0.021577 0.011922
-0.061135 0.017813 0.010028
-0.044119 -0.007289 0.005107
-0.054357 0.009033 0.005907
-0.022200 -0.002066 -0.010163
0.058664 0.012751 -0.007612
-0.054716 -0.021363 0.002864
-0.021712 0.011091 0.005475
0.019962 0.014804 0.007492
-0.029345 -0.011972 -0.011982
-0.035053 0.007691 -0.002788
-0.031234 0.018209 -0.010711
0.004097 -0.020855 0.007459
-0.035511 -0.020844 -0.001707
0.006445 -0.006934 -0.004356
0.052355 -0.007673 -0.001116
0.050811 -0.024052 -0.009532
0.056213 -0.020743 -0.001234
0.061536 -0.013158 0.008384
0.043381 0.010780 -0.006485
0.027331 -0.011942 0.005773
0.017187 0.010748 0.001043
-0.004908 0.008337 0.006673
0.048053 0.016754 0.004620
-0.012473 0.007937 0.006863
0.001091 0.024395 -0.005915
0.039098 0.024269 0.009322
0.044408 -0.002941 -0.003873
0.012346 -0.022684 -0.010117
-0.036656 -0.014784 0.000849
-0.039416 -0.023367 -0.009196
0.016986 -0.006816 0.009153
-0.006741 -0.015786 -0.004861
-0.027882 -0.002835 0.003045
0.010966 -0.022274 -0.001214
0.040661 -0.021157 -0.003624
0.055699 0.013279 0.003114
0.045744 -0.007115 0.005122
-0.015576 -0.006744 -0.008482
0.051440 0.005019 -0.010402
0.052765 0.021285 0.009526
0.012469 -0.000117 -0.003732
0.045857 -0.020269 0.008519
0.007234 0.022234 -0.010563
-0.062405 -0.016170 -0.008198
-0.055784 -0.011728 0.002897
-0.030245 0.001637 0.003627
-0.031092 -0.004753 0.009247
0.031758 0.008099 -0.007664
0.012797 -0.003330 0.000695
0.061854 -0.001251 -0.006611
0.063000 0.019993 0.008611
-0.050028 0.015517 -0.009702
-0.050906 0.006693 0.010743
-0.023106 0.021976 0.001956
-0.011110 -0.010586 0.010516
0.040155 0.021730 -0.007074
-0.005888 -0.006209 -0.001681
0.060994 -0.013771 0.008095
-0.026413 0.004432 0.008122
0.047610 -0.000485 -0.011694
-0.054169 -0.003399 0.001335
-0.062998 0.020744 -0.002130
0.023329 0.006778 0.002239
-0.055616 0.001916 -0.008226
-0.016261 -0.005021 -0.007258
0.050318 0.015591 -0.004876
-0.050644 -0.021747 0.000046
-0.048214 0.003072 0.010430
-0.005121 0.014362 0.000859
0.022210 0.022454 -0.000040
0.009413 0.005520 0.007545
-0.009039 0.018956 -0.008907
0.013114 0.020179 0.011559
0.050668 -0.008118 0.001602
0.056507 -0.011510 0.008876
-0.060825 0.024352 -0.009508
-0.049527 -0.015777 0.003281
0.000410 -0.002041 -0.000512
-0.056510 0.001718 0.011139
-0.017644 -0.009557 -0.000975
-0.042674 0.002528 -0.004040
-0.044197 -0.017867 0.000686
-0.015384 -0.011012 -0.000695
-0.035934 0.016123 -0.011365
0.046670 0.012906 0.001623
-0.014675 0.005995 -0.002450
0.024077 0.007922 -0.011024
-0.023745 0.004890 0.011247
-0.027780 -0.015163 0.000459
0.012415 -0.010269 0.003905
-0.059342 -0.002545 -0.004338
-0.028513 0.010188 0.007137
0.027487 -0.021795 -0.004180
0.028309 -0.014566 -0.009902
-0.012273 0.022732 0.002977
0.018826 0.024924 -0.004620
0.058892 0.011302 0.002943
-0.007326 0.015215 0.009386
-0.023383 -0.014431 -0.003025
0.004846 -0.005373 -0.007547
-0.009519 0.004096 -0.002831
0.007456 0.000685 0.010874
-0.045761 -0.010849 0.000391
-0.031910 -0.024736 -0.000249
-0.029600 -0.013113 -0.006126
-0.027724 -0.007572 0.011053
-0.057451 -0.014542 0.002744
0.056501 -0.024463 -0.006841
-0.058872 0.023277 0.001976
-0.026088 0.010497 -0.002030
-0.041207 -0.017871 -0.004358
0.052771 0.023425 0.009303
-0.060665 0.023052 0.002801
0.048680 0.024439 0.001400
0.008008 -0.006375 -0.011358
-0.063969 -0.000705 -0.007622
-0.032734 0.012951 0.004636
-0.062624 0.016391 0.010185
-0.051435 0.003204 -0.003107
0.036314 0.014934 -0.003427
-0.042910 0.021988 -0.003510
-0.005285 0.014241 0.010021
-0.054612 0.017922 0.003286
0.006480 0.002891 -0.010022
0.002695 0.022010 0.008288
-0.038530 0.024596 0.012308
0.036552 -0.017242 -0.000333
-0.031252 0.000513 0.010656
0.023262 0.007140 -0.011374
-0.030329 -0.022848 -0.005687
-0.038822 -0.004096 -0.006770
-0.035107 -0.024430 -0.000005
0.041171 -0.019721 0.005206
0.021713 -0.002819 -0.008744
0.023601 -0.008467 -0.007688
0.030544 -0.022507 -0.011151
0.010358 -0.011553 -0.012218
0.045189 -0.015897 -0.010405
0.035732 -0.004954 -0.007893
0.058904 0.021362 0.009723
-0.034404 -0.021215 -0.010671
-0.049628 0.001538 0.011475
0.019114 0.013722 0.000172
-0.028703 0.024610 -0.003011
0.063088 -0.012582 -0.005221
0.018783 -0.010762 0.001753
0.005231 -0.007520 0.003866
-0.036885 -0.024165 -0.010012
-0.028349 0.008530 0.001555
0.054981 0.001235 -0.006392
-0.046661 -0.009992 -0.009963
0.026074 0.006292 0.005541
-0.031339 0.002566 -0.010798
-0.016417 -0.003001 -0.010444
0.044954 0.006161 0.004963
-0.055989 0.007911 0.004495
-0.027830 0.022254 0.007239
0.032142 -0.011242 -0.002601
0.007134 0.008303 0.001762
0.017967 -0.004013 -0.000095
0.005825 -0.006717 0.001885
-0.032849 0.016289 -0.005754
-0.044874 0.023393 -0.011902
0.043704 0.001755 -0.001503
0.001755 0.008617 0.011281
0.034875 0.017454 -0.003260
-0.038384 -0.019807 -0.009988
0.038986 -0.024544 -0.007044
-0.008266 0.010097 0.001625
-0.049344 0.020241 -0.011405
-0.013535 -0.015080 0.008861
-0.051752 0.014328 -0.008683
0.009715 0.006256 0.008520
-0.062793 -0.016978 0.001008
0.055311 0.023197 0.007743
0.019870 0.017944 0.011366
-0.029364 -0.019784 0.008422
-0.019850 -0.003546 0.010994
-0.022805 -0.013505 -0.001058
-0.048355 0.018303 0.000532
-0.033872 -0.024825 -0.002325
-0.032579 -0.024245 0.008424
-0.029929 -0.000017 0.011376
0.000774 -0.023001 0.005536
-0.046471 -0.009931 -0.004988
-0.025319 0.009866 0.001704
-0.027552 0.023244 0.008680
-0.021279 0.020374 -0.008210
0.038706 0.013611 0.010547
0.057567 -0.020933 0.010810
0.062534 -0.004029 0.000935
0.056284 0.001770 0.011928
0.005070 0.024321 -0.004456
-0.009216 0.016003 0.009296
-0.020875 0.015538 -0.008193
-0.042994 -0.017827 -0.001893
-0.017702 -0.020640 -0.004721
0.025733 0.005181 -0.010038
-0.032433 -0.011129 0.010972
-0.018487 -0.002254 -0.007738
0.064949 -0.021566 -0.005168
0.027819 -0.024207 0.003529
0.019094 0.024136 0.003740
0.010978 0.007753 -0.000316
-0.011668 0.021529 0.008081
0.012430 0.001298 -0.011276
-0.036359 0.003750 0.009259
-0.018617 0.022698 0.005301
0.049355 -0.024358 0.009612
-0.044954 -0.007466 -0.003084
0.041794 -0.013979 -0.004425
0.019911 0.014316 -0.011921
0.064398 0.022203 -0.004870
-0.007822 0.009955 -0.005489
-0.055315 -0.020948 0.008506
-0.059987 0.016177 0.007584
0.063746 -0.017816 0.000988
0.017572 0.021764 -0.006607
0.039457 -0.024897 0.002301
-0.046146 0.023945 -0.004476
-0.021975 0.000921 -0.011193
0.046959 0.018596 -0.003737
0.025520 -0.022568 0.006666
0.039749 -0.021215 0.004500
-0.022744 0.006485 0.008317
0.051903 -0.008663 -0.008971
-0.050419 -0.020013 0.006123
0.015211 -0.011250 -0.004351
-0.059473 -0.023082 0.011073
0.032790 -0.016082 -0.011243
-0.041587 -0.022898 0.006913
-0.036560 -0.008362 -0.010584
0.045779 -0.024261 0.006798
-0.031447 -0.010959 0.000784
-0.009521 0.001989 0.010897
0.025658 0.003096 0.009013
-0.031950 0.017284 0.011467
0.036600 -0.002904 0.008293
0.011830 0.016080 0.008829
0.050228 -0.015733 -0.006122
-0.036759 -0.019828 -0.010971
-0.043855 0.002655 0.000850
0.017497 -0.007444 -0.011600
0.053911 0.019078 0.010159
0.022651 -0.001466 0.007127
0.027703 0.004034 0.002951
-0.028912 0.003008 -0.011017
0.039435 0.023180 -0.011712
0.014306 -0.014821 0.001118
-0.011588 0.021413 0.000992
-0.004491 0.015062 -0.011698
-0.015421 -0.017304 0.003540
-0.012839 0.002095 -0.005542
0.058806 -0.005261 0.002370
-0.047652 -0.015190 0.000486
-0.025412 -0.013334 -0.002149
0.051732 -0.024899 0.004986
-0.010037 -0.022789 0.008458
-0.017412 -0.002240 -0.008912
0.008301 0.011747 -0.000367
0.058928 0.008558 0.005790
0.000037 0.010292 -0.004199
-0.023802 -0.002248 0.002620
0.001213 0.007864 0.001082
-0.056690 0.023849 0.002207
0.003658 -0.016142 -0.002990
-0.053336 -0.011612 -0.003537
0.051958 0.009143 0.011141
0.004102 0.018930 -0.003880
-0.040918 0.018109 -0.009273
-0.064642 -0.001245 0.008496
0.019163 0.007257 0.002364
-0.011988 -0.007155 0.002495
0.048540 0.021029 -0.003867
0.003117 -0.016939 -0.005147
-0.018487 -0.011741 0.004928
-0.042593 0.000004 0.009814
0.044910 0.010268 -0.003870
0.059798 0.007917 0.011515
-0.018927 -0.020170 -0.007004
0.005721 0.022644 -0.010699
-0.058788 -0.019868 0.003289
0.008754 -0.019419 0.002101
-0.022786 -0.018409 0.011219
0.044316 0.002285 0.007594
-0.023860 0.010847 -0.007402
0.037682 -0.015642 0.009706
-0.038162 0.019542 -0.010771
-0.014785 0.002462 -0.005113
0.017509 -0.006293 0.007937
-0.027500 0.006887 0.000173
0.051973 -0.007566 0.003241
0.025381 -0.003705 0.012496
0.040302 0.003359 -0.004207
0.024846 0.016255 -0.010685
-0.040913 0.019758 -0.010695
0.050982 0.022710 0.004381
0.053185 -0.009609 -0.008199
0.010629 -0.023844 0.000829
0.013188 -0.005192 0.002433
-0.037880 0.008472 0.003455
0.044353 -0.003582 0.002230
0.000766 0.012560 -0.005811
0.058166 -0.007281 -0.005497
-0.033050 0.024991 0.004181
-0.041905 0.007933 -0.003981
-0.009436 0.003603 -0.003256
-0.046346 -0.017361 -0.010216
0.025603 0.015308 0.006590
0.027413 -0.016524 0.011214
0.036425 0.021470 -0.001014
-0.052333 -0.007826 0.004602
0.044586 -0.010281 -0.010358
