ply
format ascii 1.0
element vertex 900
property float x
property float y
property float z
end_header
-0.029364 -0.000709 0.002692
0.004282 -0.000532 -0.001746
0.012370 -0.003472 -0.001873
0.018613 0.000714 0.003903
0.010638 -0.000404 -0.003715
-0.028001 -0.003856 0.001006
-0.016461 -0.002395 0.003075
0.028788 -0.002206 0.001281
-0.016466 0.000442 0.001923
0.021573 -0.002611 -0.001205
0.028736 -0.000096 0.002449
0.006267 0.000109 -0.002884
-0.006236 -0.000752 -0.003880
-0.029005 0.002440 0.002744
-0.001356 -0.003079 0.001177
-0.010549 0.000686 -0.000178
0.002614 0.002859 0.002591
-0.020213 0.002954 0.000788
0.015091 -0.000445 -0.001297
-0.003609 -0.003935 -0.000297
0.009058 -0.000774 -0.002937
0.013808 -0.001598 0.000244
0.007750 -0.003649 0.000131
-0.005150 0.000717 0.003809
0.027848 0.001811 0.000415
0.026826 0.001417 0.002468
-0.000876 0.000335 -0.003138
-0.029439 -0.001930 -0.001397
-0.006243 -0.000633 0.002578
-0.012781 -0.001214 -0.001694
-0.011921 0.003320 -0.000332
0.003981 0.002192 0.001299
-0.007502 -0.001933 -0.000376
-0.012737 -0.000181 -0.001917
0.013541 -0.001655 -0.002991
0.010281 0.000574 0.002662
-0.014938 0.003647 -0.000167
-0.022992 -0.002870 0.001495
-0.017287 0.000463 0.001388
0.000915 -0.001002 -0.002322
-0.028609 0.001309 -0.002391
-0.003657 -0.000050 0.002222
-0.026299 -0.001791 -0.001546
-0.019375 -0.002042 -0.000743
0.015203 -0.001112 -0.000072
0.010200 0.003844 0.000273
-0.028682 0.000248 0.001352
0.024386 -0.001107 0.003774
-0.016657 0.000757 0.001433
-0.017663 -0.000463 -0.003008
-0.025651 -0.000227 0.001245
0.004536 -0.002487 0.000008
-0.015291 0.001601 0.001691
0.029670 -0.001695 -0.000945
-0.003944 -0.002280 0.002567
0.012398 -0.002094 0.002689
-0.017504 0.000069 -0.001185
-0.016048 -0.002149 0.000849
0.025432 -0.000316 -0.002384
0.018289 -0.003325 0.000010
-0.029786 -0.001560 0.000034
-0.021008 -0.000194 0.002716
-0.007045 -0.001968 0.000193
-0.001116 0.000086 0.003023
0.023310 -0.000758 -0.003633
0.019291 -0.003148 -0.002334
0.005742 0.000946 0.000322
-0.010201 0.002748 -0.000992
-0.009888 -0.002261 -0.001451
0.009825 -0.002468 0.001851
-0.011856 -0.000331 -0.000617
0.013819 0.001060 0.000106
0.000704 0.000015 0.002438
-0.013763 -0.001182 0.002871
-0.012515 0.000922 0.003276
0.003154 0.000464 0.002988
0.010615 0.000880 -0.000469
-0.016379 -0.001119 0.000276
0.016283 0.000780 0.001149
-0.023797 0.003781 0.001263
-0.029541 0.002911 0.000504
-0.004274 -0.001180 0.001151
-0.001763 0.003462 0.000253
0.000541 -0.001433 -0.001534
0.012190 -0.000000 0.000285
-0.000219 0.002063 0.002961
0.020909 0.001483 -0.002070
-0.015585 -0.001728 -0.000794
0.000507 0.003520 -0.001321
-0.023830 -0.002272 0.002485
-0.027049 -0.001510 -0.003278
-0.005699 0.001074 -0.002534
-0.025525 -0.002166 0.000239
0.015215 0.000045 -0.000655
0.010537 0.002708 -0.001641
-0.028105 0.001503 -0.003568
0.010158 0.002499 -0.000529
-0.014702 0.002869 0.002093
0.011927 -0.000104 0.001527
-0.025910 0.003308 0.000680
0.002099 0.003968 -0.000217
0.009058 -0.000887 -0.001435
-0.011771 0.001085 -0.003158
0.021788 -0.001164 -0.003719
0.003428 0.003185 -0.000010
0.025622 -0.002016 -0.002970
0.013544 0.002569 0.002552
0.007565 0.000013 -0.002790
0.029426 0.002058 0.001134
-0.022915 0.001881 0.002893
-0.012293 0.003396 0.000045
0.012601 -0.000612 -0.002108
-0.004044 0.001324 0.003618
0.014091 -0.003209 -0.000377
-0.015891 0.002146 -0.002165
0.013607 0.001330 -0.000085
0.021195 -0.000015 0.001350
0.008055 0.000728 0.001905
-0.025357 0.002559 0.000623
0.010742 0.001805 -0.001721
-0.004671 -0.002866 0.000304
-0.025392 -0.000379 -0.002588
0.014471 -0.001749 0.002897
-0.029723 -0.003633 0.000688
-0.025831 -0.001550 -0.003682
-0.025954 0.000231 0.002447
0.015056 -0.001221 -0.001124
-0.005331 0.000146 -0.002561
0.025780 0.000461 0.002471
0.021321 -0.000411 -0.002210
-0.003037 0.001276 -0.001392
0.020427 0.003742 -0.001112
0.018198 -0.001801 -0.001494
0.005185 -0.000366 -0.001892
0.000341 -0.000709 0.003295
-0.003327 -0.002733 -0.002399
0.029913 -0.002426 -0.001837
0.028378 -0.002029 0.001793
-0.023562 0.000508 -0.001737
-0.012900 -0.002183 0.002632
-0.017204 -0.002954 0.001636
-0.010653 -0.003100 0.002476
-0.012053 -0.002936 0.002144
-0.001206 0.001381 -0.000319
-0.018178 -0.000606 -0.002548
-0.029023 -0.002618 -0.000863
0.028857 0.001410 0.000186
0.007978 0.000953 -0.000371
-0.016263 -0.001169 0.002735
0.019081 -0.000085 0.001501
-0.011900 -0.000888 0.001491
0.018862 -0.002055 0.000424
0.000395 -0.000815 0.001374
0.006861 0.000534 0.002826
-0.020099 0.001809 0.001548
-0.028064 -0.002912 0.002725
-0.019327 -0.000083 -0.002213
-0.000954 -0.002290 -0.001094
0.006351 0.000716 -0.000406
0.025814 -0.003769 0.001238
0.026615 -0.001765 0.003116
0.020700 -0.003767 -0.000295
0.019951 -0.000937 -0.003791
0.017854 0.001530 0.000145
-0.015490 0.002111 0.002090
0.008354 -0.002186 -0.002849
0.018485 0.002019 -0.001760
0.003198 -0.003949 0.000327
0.002826 -0.001454 0.001048
0.018112 0.002608 0.002059
0.025490 -0.000739 0.000243
0.023611 -0.000677 0.003850
-0.012335 -0.002360 -0.000005
0.013384 -0.001812 0.003271
0.016906 0.002172 0.001715
-0.027110 0.000926 0.002344
0.002309 0.002115 0.000106
0.028223 -0.003435 0.000590
-0.009290 -0.003499 -0.000034
-0.028478 0.001306 -0.000528
0.007468 0.003007 -0.001305
0.001142 -0.001187 0.001938
-0.014431 0.000305 0.002373
-0.022274 0.002037 -0.001180
-0.028858 -0.002072 -0.001549
0.014315 -0.001113 0.003126
0.023549 0.001278 0.000364
-0.002539 0.002696 0.001290
0.007201 0.000426 -0.003065
0.008500 -0.001411 0.003325
0.025924 0.000553 -0.003402
0.017283 -0.000706 -0.001017
0.018173 0.002377 0.002340
0.003035 0.003435 0.000422
0.008243 -0.000012 0.003942
-0.004421 0.000690 -0.001803
-0.026666 0.001220 -0.002725
-0.028430 0.001499 0.000722
0.019621 -0.002833 0.001573
0.017161 -0.000209 0.003590
0.000388 0.001835 0.000686
0.013872 0.002979 -0.000706
-0.029606 0.002552 0.002232
0.011753 -0.000882 0.003153
-0.024952 -0.000316 -0.000229
0.008389 0.001726 0.001668
-0.027016 -0.002344 0.002549
0.019826 -0.000100 0.000791
-0.025039 0.000369 -0.000951
0.016000 0.000639 -0.002785
-0.010704 0.000028 0.003159
0.019328 -0.003003 -0.002282
-0.028133 0.003447 0.002026
-0.016864 -0.000215 -0.003954
-0.015936 -0.001596 0.002504
0.005608 -0.000088 -0.001390
0.015185 -0.000249 -0.002759
0.008504 -0.002401 0.001733
0.003043 -0.000249 0.003650
0.013190 0.001100 -0.000427
-0.004322 0.002810 0.001820
-0.015306 0.001703 0.000366
0.021821 -0.002421 0.002482
-0.018264 -0.000050 -0.001661
0.018765 0.000853 -0.003219
-0.008041 0.002167 0.002774
-0.000057 0.001244 0.002669
-0.029510 0.000231 -0.000682
0.002302 -0.003832 -0.000251
-0.001435 0.003080 0.001976
-0.019350 0.002910 -0.002423
-0.015714 -0.002636 0.001205
-0.000638 0.000691 -0.003532
0.008893 -0.002466 0.000824
-0.003090 0.003009 -0.002086
-0.009345 0.001454 0.001848
-0.009262 0.000606 -0.000309
-0.015660 -0.003137 0.002363
-0.014521 0.002333 0.000641
-0.007516 -0.002086 -0.000110
0.017878 -0.000107 -0.002418
-0.022656 -0.000790 0.000289
0.012925 0.000327 0.003457
-0.014464 0.002520 0.001950
-0.014837 0.001613 -0.002566
-0.013322 -0.003853 -0.000774
-0.011755 -0.001372 0.001084
0.021318 0.000245 0.002700
-0.015365 0.001159 -0.000671
-0.000937 0.001339 -0.001099
-0.015684 0.000488 -0.000337
0.020544 0.001840 0.002285
0.023852 -0.002958 0.000282
-0.015608 0.001443 -0.000334
0.021732 -0.003899 -0.000754
-0.004363 -0.000431 0.003863
-0.000913 -0.002928 0.000883
0.016300 -0.001552 0.002407
-0.004854 0.002929 0.000954
-0.014005 0.000336 0.000770
-0.023180 0.002140 -0.000415
-0.018428 0.002338 0.003119
-0.018558 -0.000739 -0.003214
0.023655 0.001112 -0.003389
-0.029259 0.002074 -0.000808
-0.004519 -0.003040 -0.000765
0.024665 -0.001136 -0.002561
0.027596 -0.001001 0.001713
-0.025392 -0.000579 -0.003855
0.003417 0.002360 -0.000016
-0.003949 -0.002131 0.002688
0.016031 0.002100 0.000543
-0.019888 -0.001587 -0.003593
0.013494 0.001533 0.002226
-0.019006 -0.001513 0.003311
-0.024480 0.001066 0.001609
0.004940 0.003684 0.000460
-0.029703 0.000992 -0.003625
-0.007030 0.000825 0.002214
0.020850 -0.001412 -0.000897
-0.010428 -0.002092 0.000977
0.011128 -0.002612 0.002190
-0.016421 -0.000780 0.000707
0.027765 0.000066 0.000825
-0.012662 0.001823 0.000395
-0.010607 -0.002600 0.000870
-0.016257 0.000246 0.003643
0.009452 -0.001593 0.000657
0.005352 0.001458 0.002949
0.004858 0.002719 0.000900
-0.017935 -0.001526 -0.000401
-0.022667 -0.002573 -0.000687
0.012166 0.001963 -0.001011
-0.020451 0.001751 0.003494
-0.023550 -0.001929 -0.000498
0.013615 0.000286 0.002057
-0.012093 0.002943 0.002551
-0.008821 0.003352 0.002102
0.004381 0.001977 -0.002679
0.029645 -0.000428 -0.003635
0.007541 0.002474 -0.002031
-0.004945 -0.001504 0.001770
0.027650 -0.000727 -0.001506
-0.008743 -0.002382 -0.003025
0.016900 -0.001357 0.001955
-0.017058 0.002769 -0.002422
-0.027406 -0.002620 0.001688
-0.021948 -0.001097 0.003352
-0.020618 -0.002364 0.002469
-0.020251 -0.001885 -0.002627
0.026980 0.000125 -0.000212
0.018903 -0.001685 0.001028
0.021976 0.003408 -0.001146
0.004172 -0.002547 -0.000069
0.020407 -0.001955 0.000990
-0.011583 0.000344 0.001125
0.022943 0.001537 0.002404
-0.000013 -0.002911 -0.000327
0.003916 -0.000405 0.000805
-0.011329 -0.001261 0.000660
0.029360 -0.001161 0.002297
0.016750 0.001831 -0.001257
-0.015609 -0.000803 0.000422
-0.023604 -0.002703 -0.000278
-0.028174 -0.002119 0.000140
0.007624 0.001598 0.000307
0.001472 0.001457 -0.001793
-0.018045 -0.000590 0.003532
-0.001494 0.000995 -0.001489
0.017017 0.003095 -0.001462
0.020090 -0.003094 -0.001266
0.028074 0.002629 -0.002542
-0.004046 0.001451 -0.000819
-0.020680 -0.002597 0.002512
0.002289 0.000467 -0.003389
0.008649 0.002171 -0.003243
0.027034 -0.000827 0.000803
0.006467 -0.001999 0.002115
-0.000309 -0.001172 0.001111
0.026325 -0.001303 0.002920
0.028017 0.002354 -0.000855
0.015475 0.000132 -0.000041
-0.003937 0.000386 -0.003360
-0.003237 -0.003018 0.002280
0.023732 -0.000996 -0.001640
0.001230 -0.003758 -0.000920
-0.012698 0.000826 0.003146
-0.006901 -0.002963 0.001019
0.020341 0.000658 0.003296
0.012635 -0.000844 -0.002621
0.009762 -0.001747 -0.000423
-0.020474 0.001390 0.000726
0.028870 -0.000780 0.000565
0.002673 -0.001506 0.001394
0.015148 0.002871 -0.000548
0.000145 -0.003754 -0.001014
0.010576 -0.000648 0.001372
0.024961 -0.002947 0.001669
-0.014159 -0.002610 -0.001926
-0.008453 0.001608 0.001225
-0.029615 -0.002547 0.001569
-0.023633 -0.001196 0.001133
-0.014798 -0.002516 0.002143
-0.019181 0.000854 0.001992
-0.010263 -0.003216 0.002070
-0.015188 -0.002613 -0.002471
-0.024334 -0.003370 -0.000357
0.024273 -0.003754 0.000004
-0.002636 0.001520 0.002822
-0.016041 -0.000045 0.002696
0.022091 0.000658 0.002221
-0.010375 0.000645 0.002058
-0.021985 0.001675 -0.003201
-0.026344 -0.001485 -0.002096
-0.000481 -0.002411 0.000674
-0.018938 0.002354 0.000824
-0.023832 -0.003148 -0.000992
-0.017050 -0.001329 0.002660
-0.017035 -0.000131 0.002583
-0.012074 -0.002469 0.000723
-0.002694 -0.002144 -0.001747
-0.012809 -0.001104 0.001263
-0.016664 0.001642 0.000117
-0.007151 0.001792 0.000586
0.009339 0.000691 0.000371
-0.008408 -0.001353 -0.001600
0.029427 0.001397 0.001152
0.010059 -0.003634 -0.001026
-0.008129 -0.000118 0.002699
-0.019497 0.000906 -0.003497
0.016971 -0.000648 0.003500
-0.001577 -0.000858 0.001449
-0.002950 0.001654 -0.001272
-0.018341 0.003814 0.000303
0.023429 0.001395 -0.003638
-0.008298 -0.000267 -0.003235
0.015236 -0.000240 -0.001227
0.016897 0.001102 0.002325
0.010030 0.001889 0.002353
-0.001739 -0.002921 0.001732
-0.023516 0.001046 -0.000636
0.013157 0.002915 -0.001402
-0.004331 0.003849 -0.000786
-0.000466 0.000464 -0.002647
-0.006917 -0.001259 -0.002097
0.014126 -0.002448 -0.002738
0.020423 -0.003547 0.000343
-0.005849 0.003627 0.001275
0.015234 0.003334 0.000548
0.011675 0.001248 0.003786
-0.021134 0.001552 -0.001368
0.014212 0.002006 0.000115
-0.018843 0.002292 -0.000587
-0.004842 0.002793 -0.002591
0.006716 -0.001402 -0.000857
0.010455 -0.000409 0.003225
-0.026794 0.000455 0.000710
0.029787 -0.001685 0.003543
-0.007314 -0.002293 0.001931
-0.017984 0.000564 0.002162
0.004531 -0.001040 -0.001343
0.022134 -0.001163 0.003285
0.022352 0.000562 -0.001792
0.026363 0.002369 -0.001521
0.024202 0.002898 -0.001820
-0.015539 -0.000356 -0.000824
-0.014790 0.000468 0.002419
-0.019524 -0.002782 0.000191
0.007040 0.000989 -0.001997
0.016517 0.002214 -0.000385
-0.029298 0.003027 0.000568
0.003583 -0.003192 -0.001952
-0.028502 0.001103 -0.003173
0.021977 -0.002833 -0.000302
0.005504 0.002400 0.002262
-0.007499 -0.001670 0.002109
-0.028467 0.001512 0.002307
-0.003636 -0.001976 0.000103
-0.025489 -0.001290 0.003662
0.019403 -0.002188 0.000285
-0.027131 -0.002524 -0.002252
0.026696 -0.002359 0.000505
0.009280 -0.001349 0.002281
-0.012384 0.000549 0.002683
-0.000392 -0.003359 0.001882
0.006149 -0.001834 -0.003027
-0.021607 -0.003846 0.000398
-0.024927 -0.001980 0.001367
0.003105 -0.001366 0.002331
0.001555 -0.002911 0.002575
-0.012663 0.002507 -0.000434
-0.011250 -0.001256 0.003078
-0.026898 0.003365 -0.000660
0.012279 0.000040 0.003096
0.015061 -0.002158 0.002846
0.001748 0.003117 -0.001338
-0.006631 -0.000988 -0.001111
-0.000571 -0.002297 -0.000623
0.005214 0.002666 -0.002743
-0.008593 0.002151 -0.000482
0.020634 -0.001842 0.003199
0.014363 -0.002066 0.002655
-0.015765 0.002777 -0.002014
0.009669 0.002362 0.000935
-0.013232 -0.001507 0.000537
0.027948 -0.003013 -0.000071
-0.004153 -0.000646 -0.002324
-0.013677 0.000396 -0.002089
-0.016147 -0.001080 0.001502
-0.010871 -0.001505 -0.003580
-0.021900 0.003421 0.000713
-0.010392 0.003006 0.001314
-0.008245 -0.001852 -0.000764
0.007536 -0.000737 -0.001716
0.011488 -0.001617 0.002776
0.009737 0.003363 -0.000980
-0.024935 0.001071 0.000538
0.026848 0.001780 0.003159
0.020158 0.000718 -0.000394
-0.007849 -0.001961 -0.001106
-0.009035 -0.001788 0.001653
-0.006048 -0.002045 -0.003386
-0.029434 0.000706 -0.000730
0.017890 -0.002396 -0.001884
-0.014417 0.002425 -0.002673
-0.012571 0.001700 -0.000195
-0.021800 -0.002032 0.002078
0.027186 -0.003511 0.000775
0.005817 -0.002293 0.001736
0.019875 0.000723 0.001246
0.029007 -0.003230 -0.000652
0.022165 0.001549 0.003301
-0.018500 0.002285 0.000605
-0.013794 0.003115 0.000319
0.009090 -0.003439 0.000494
-0.018595 0.003762 -0.000101
-0.003908 -0.000168 0.001221
-0.001143 0.002251 0.000928
-0.024730 0.003351 -0.000022
0.005571 -0.002514 -0.003084
0.011687 0.000609 0.003082
0.003369 0.002365 0.001017
-0.006816 -0.003125 0.002479
0.026893 0.003426 0.001549
-0.002093 0.001384 0.003391
-0.012097 0.003495 0.001585
0.019164 -0.003136 0.000965
-0.002669 0.001572 -0.003376
-0.016075 0.002306 -0.000943
0.003367 -0.003274 -0.001334
0.007831 -0.002687 0.000983
0.025343 0.001737 -0.001499
0.012893 0.000032 0.000886
-0.025900 -0.001624 -0.000661
0.017664 -0.002504 -0.001527
0.014638 -0.000754 -0.001595
-0.002395 0.003487 0.001396
-0.014804 -0.002911 -0.002243
-0.028026 0.001411 0.001732
0.025848 0.000852 0.001772
-0.018855 -0.000765 0.003797
0.001159 0.000746 -0.002279
0.028961 -0.002615 0.001557
-0.022554 -0.002980 0.002472
-0.016609 0.001176 -0.001211
-0.029688 -0.000440 -0.002328
0.017886 0.000209 0.001596
0.010642 -0.001066 0.003081
0.027304 0.002010 0.002602
0.003613 0.003508 0.001616
0.020259 -0.001149 -0.001193
-0.010213 0.002275 -0.000307
-0.029521 0.001609 0.002209
-0.002619 -0.003247 0.002151
-0.007672 -0.001184 0.003108
0.006630 0.002648 0.001226
0.020136 -0.000066 -0.002572
0.014880 -0.002226 -0.001467
-0.022074 -0.001017 0.001166
-0.017680 -0.002352 0.002822
-0.018185 -0.001820 0.002769
0.018972 0.003116 0.001631
-0.020844 -0.000906 0.003494
-0.001669 -0.003213 0.001736
-0.015648 0.000521 -0.001196
-0.028887 -0.001019 -0.002042
-0.026490 0.001293 -0.003261
0.015587 0.002077 0.002872
0.003920 -0.000474 -0.000355
-0.026307 0.003551 0.001814
-0.008807 -0.003236 0.001791
-0.006821 -0.001702 0.002423
0.007000 0.003038 0.002466
-0.001646 0.003041 -0.000543
-0.011075 -0.002478 -0.002316
0.002880 -0.001537 -0.002673
0.029394 0.000655 -0.000895
-0.013240 -0.000149 0.000907
0.018400 -0.002507 0.000962
0.026528 -0.000368 0.000714
-0.006620 0.000678 -0.002901
-0.003813 -0.003094 -0.002397
-0.009722 -0.001494 0.003255
-0.021506 0.001099 -0.003439
0.018314 -0.002518 0.002597
0.019472 0.000338 -0.001687
-0.021978 0.000153 0.003910
-0.023177 -0.000795 0.003892
-0.028881 0.002394 -0.000351
0.028546 -0.003703 0.000946
-0.017120 -0.003453 -0.001118
-0.002540 0.001569 0.000957
-0.029722 -0.003208 -0.000340
-0.006704 -0.000032 0.003282
0.001102 -0.000531 -0.002401
0.009800 -0.000855 -0.001944
0.000700 0.001221 -0.002639
0.011906 -0.000192 0.001883
-0.018135 0.003158 0.001030
0.025759 -0.001673 0.000420
-0.008419 0.000425 -0.002449
-0.022079 0.002610 -0.002858
0.020167 0.002619 -0.002302
-0.025440 -0.002975 -0.000441
-0.024084 0.002467 -0.001233
0.008156 -0.001280 -0.001979
-0.025847 0.002759 -0.002061
-0.017705 0.002922 -0.001444
0.013311 -0.000434 -0.002456
-0.014601 0.003260 0.000963
-0.029772 0.001603 -0.000135
-0.007099 -0.001403 -0.002644
-0.011486 -0.000842 0.001654
0.016956 -0.000723 -0.000881
0.024558 0.002345 -0.000616
-0.001609 -0.001497 0.002010
-0.014667 0.001587 -0.001247
0.018945 -0.001795 0.000558
-0.016145 0.000290 -0.003708
-0.009025 0.003325 0.000425
0.016749 0.001132 0.000763
-0.029581 -0.000467 -0.001036
0.005715 -0.001604 -0.000039
-0.023459 0.001525 0.002622
0.010346 0.000394 -0.002876
0.009377 0.002376 -0.002176
0.009252 0.000792 0.003052
0.000859 0.002097 0.001494
-0.023999 0.000677 -0.000581
0.028859 -0.003433 -0.000276
0.016152 -0.001458 0.003617
-0.019361 0.001395 0.001593
-0.008152 -0.002754 0.002769
-0.011596 0.001020 -0.001078
0.027229 -0.000756 0.002239
-0.020619 -0.002574 0.002862
-0.003293 0.001260 -0.000189
0.005285 0.000949 -0.003790
-0.000324 -0.001213 -0.002287
0.005004 -0.000285 -0.001485
0.026056 -0.002077 0.001171
-0.029655 -0.001235 -0.001857
0.009365 0.001492 0.002516
0.011439 -0.001356 -0.003210
0.015299 -0.000592 -0.002593
-0.017878 0.000317 0.003124
0.027561 -0.003432 -0.001195
-0.018724 -0.003356 -0.000204
-0.025975 0.002383 -0.000498
-0.020132 -0.000374 -0.003516
0.021123 -0.002640 0.002228
-0.027675 -0.000046 0.003300
-0.009627 -0.000465 -0.002786
-0.000467 0.002646 -0.002205
-0.007913 0.000262 0.000543
0.018185 -0.000967 -0.002277
0.004861 -0.003230 0.000190
0.029104 -0.002191 0.001507
0.027950 -0.001690 -0.001108
-0.023937 0.002851 0.001196
-0.027762 -0.000953 0.003420
-0.029121 0.000221 -0.001172
0.010833 -0.002989 -0.001041
0.029096 0.003772 -0.000444
0.001149 -0.003157 0.000991
0.022007 -0.001547 -0.003151
-0.006954 -0.000734 0.000620
-0.026531 -0.002644 0.002029
0.028895 -0.001376 0.003129
0.018609 -0.002807 0.001709
-0.016940 -0.003066 -0.000614
0.020278 0.002306 0.001749
-0.019269 0.000707 -0.001473
0.001534 0.000853 -0.002850
0.024218 0.000103 0.000352
-0.017061 -0.001149 -0.002065
0.006214 0.002717 0.002544
0.000873 0.000393 -0.003269
-0.022835 -0.001958 -0.002293
0.016410 0.000341 -0.001666
0.005076 -0.003057 0.000221
0.016652 0.002899 -0.001653
0.007352 0.001013 -0.000880
-0.021668 -0.001436 -0.000235
0.029036 0.000523 0.000148
0.011103 0.002495 -0.000001
-0.016959 -0.000150 -0.002585
0.018316 -0.002054 -0.003430
-0.010786 -0.002374 -0.001725
0.029110 -0.000597 -0.001897
0.002960 0.000045 0.002446
0.026152 0.001667 -0.003347
-0.000870 -0.000140 0.003792
-0.022570 0.002329 -0.001285
-0.014834 0.002990 0.001726
0.005173 -0.002871 -0.001339
0.015160 -0.000510 0.003894
-0.019575 0.001366 -0.000865
0.026726 -0.002029 0.003010
0.025316 0.001905 -0.000398
-0.014248 0.001236 -0.001460
0.000982 0.001771 -0.001015
0.017717 -0.003128 -0.002097
0.009903 -0.000576 0.001226
0.026375 -0.000830 0.000560
0.014646 -0.003351 -0.001387
0.000457 0.001143 -0.000050
0.016873 0.001686 -0.001076
0.012830 0.000719 -0.002331
0.003237 0.000046 -0.002706
-0.020128 -0.001036 0.002705
0.014537 0.003713 -0.000740
-0.007299 -0.003001 0.001722
-0.028053 0.002666 0.000454
-0.015722 -0.002538 0.001104
0.002991 -0.002649 0.000039
0.020532 0.000321 -0.001829
-0.000097 -0.000891 0.003131
-0.004478 -0.001890 -0.002573
0.021300 -0.000796 0.000558
-0.027980 0.002437 0.002026
0.005057 -0.002152 0.002575
-0.007910 0.001742 -0.000650
-0.012017 -0.003426 -0.001556
0.016875 0.001752 0.001412
0.014991 0.000704 -0.003112
0.010030 -0.002494 -0.001533
0.014311 0.000601 -0.002614
0.009086 0.000426 0.002880
0.025694 -0.001957 -0.000529
0.004802 0.000032 0.001838
0.016462 -0.001042 -0.001655
-0.024860 0.000508 -0.003253
-0.025238 0.000657 -0.001848
-0.014656 0.002044 0.002042
0.022710 -0.000705 0.001712
-0.017072 0.003750 -0.000514
0.024947 0.002764 -0.002324
-0.026217 0.001268 0.002668
0.028158 -0.002243 -0.001906
0.014865 0.001567 -0.001209
-0.019680 -0.000377 -0.001170
0.029724 -0.001153 -0.002411
0.000460 0.000802 -0.002902
0.016465 0.000357 -0.003894
-0.003990 -0.001309 -0.002428
0.002214 0.001724 0.000747
-0.013174 -0.002841 0.000168
-0.000236 -0.001203 0.002575
0.014207 -0.000530 0.002319
0.016532 -0.000104 -0.000032
0.007188 0.002965 0.000260
0.019106 0.001362 -0.002376
-0.007365 -0.001700 0.003111
-0.025256 0.000099 0.000440
0.006901 -0.000982 0.002433
-0.004853 -0.000015 0.003860
-0.027555 0.000232 0.001009
-0.009031 0.002025 0.000905
-0.021909 0.001860 -0.001523
0.028085 -0.001365 0.003512
0.020990 -0.000687 -0.002692
0.003216 -0.001716 -0.001368
-0.024594 0.001539 0.000519
-0.023478 -0.000407 -0.001442
0.025492 0.002054 0.001487
0.005256 0.002438 -0.002120
0.027422 0.000889 0.002237
-0.015377 -0.001671 -0.002036
0.001043 0.000324 -0.000187
-0.013485 0.002144 0.000930
0.012251 0.001598 0.001410
-0.008434 -0.003492 -0.001908
-0.004407 -0.000181 0.002423
-0.025490 -0.001101 -0.000091
0.026639 0.003869 -0.000136
0.006736 -0.003700 -0.001315
0.016657 0.003328 0.001954
-0.029149 -0.002044 -0.001189
-0.009685 0.003196 0.001030
0.005929 -0.001555 -0.003094
-0.023594 0.000152 -0.000991
0.009664 -0.000441 0.003285
0.016491 0.002424 -0.000470
0.009943 0.002601 0.001381
0.011291 0.003080 -0.002223
0.016206 -0.001591 -0.000823
0.012983 0.002903 -0.001929
0.023099 -0.000056 0.001511
-0.011962 0.003500 -0.001794
-0.003739 -0.001403 -0.003627
-0.026645 -0.000504 -0.001480
0.023715 -0.003114 0.001430
0.005598 -0.002565 -0.002259
-0.012721 0.000655 0.003244
-0.020690 0.000812 -0.002724
-0.002873 -0.000232 0.002009
-0.006360 -0.001522 0.000463
0.023260 0.000751 0.000889
0.007570 0.001712 -0.001910
-0.025330 0.000911 0.000182
-0.017366 -0.002310 0.000601
0.015504 -0.000364 -0.003111
-0.002921 -0.003622 -0.000711
-0.029451 -0.001846 0.001829
-0.021350 0.001374 -0.002782
-0.023369 -0.001672 0.001609
0.013823 0.003358 -0.000878
0.015192 0.003398 0.000403
0.024025 -0.001036 0.002421
-0.016082 -0.000512 -0.000601
-0.024888 -0.000618 0.002706
0.017291 -0.002777 -0.002179
0.002051 -0.001349 0.001343
-0.009904 -0.002835 0.001703
0.003676 0.002709 -0.000346
0.002660 0.000265 -0.003414
0.028031 0.001824 -0.000518
0.008616 0.001082 0.001282
0.000643 -0.003131 -0.000357
-0.027160 -0.002392 0.000771
-0.006834 0.001170 0.001549
-0.023650 0.002949 -0.001677
-0.014024 0.001588 -0.000432
0.007937 -0.002356 0.000667
-0.011127 -0.001678 -0.003469
-0.022493 0.001985 -0.000080
-0.017621 0.001444 0.003062
-0.017583 0.000323 -0.003108
-0.015782 0.000975 0.001067
-0.021670 -0.002901 0.001730
0.020494 0.003198 0.000472
-0.029345 0.000490 0.001784
0.005964 0.003970 -0.000453
0.009893 -0.002270 -0.000585
-0.010758 -0.003473 0.001535
-0.002773 -0.002625 -0.001632
0.010584 -0.000145 0.000494
-0.023673 -0.002381 -0.003127
0.009193 0.000395 -0.002566
-0.008801 0.000279 0.001423
0.024475 -0.002597 0.000034
-0.004391 0.002057 -0.001544
0.008723 0.001345 -0.000071
-0.005682 0.002807 0.000240
0.008218 -0.002997 0.001008
0.028858 -0.001038 -0.003099
0.013998 -0.003031 0.000335
-0.019818 -0.002545 -0.001445
-0.025379 0.001776 0.003501
-0.005747 0.000654 0.002825
-0.009115 0.001296 0.002692
-0.016791 -0.003603 -0.000006
0.023793 -0.000320 0.003003
-0.022626 0.002340 0.001308
-0.007537 -0.001316 0.002573
-0.018961 -0.001770 -0.002062
0.029578 0.002560 -0.001850
-0.023637 0.001273 0.003789
-0.011092 0.001854 -0.000736
0.029320 -0.000698 0.002406
-0.029376 0.000475 0.002774
0.028916 0.002753 0.000457
0.028094 0.000701 -0.002574
-0.013300 -0.001587 -0.002148
0.028609 0.002142 -0.000109
-0.015231 0.000225 0.001502
0.015108 0.002594 0.000109
-0.016220 -0.002854 0.001565
0.021399 -0.002535 0.002820
0.025379 -0.000534 0.000311
0.018848 -0.000809 -0.000569
0.003777 0.001550 0.000335
0.005336 0.002882 0.000090
0.007963 -0.000493 0.002923
-0.003563 -0.002961 -0.002632
0.025143 0.000066 0.002240
0.016297 0.002583 -0.001034
0.005039 -0.002936 0.002633
0.010286 -0.001950 -0.003158
0.008001 -0.003541 0.000051
0.020921 0.000601 -0.003545
0.008491 -0.000859 0.003592
0.014527 0.000400 -0.000269
-0.004632 0.000715 -0.001378
0.001528 0.002416 -0.001813
0.008067 -0.000211 0.003567
0.027687 -0.001997 -0.003363
0.017430 -0.002036 -0.000507
-0.025089 -0.001268 -0.001563
0.010000 -0.001006 -0.003336
-0.026799 0.000962 0.003504
-0.008678 -0.001333 -0.002612
0.025003 -0.002040 -0.000381
0.020917 0.001909 0.002867
0.004428 0.000127 0.003807
0.008501 0.002688 0.000007
-0.003015 0.000469 -0.000628
0.022981 -0.001327 -0.000453
-0.027660 -0.001415 0.003330
-0.025968 0.001746 -0.002482
-0.009899 -0.001267 0.002371
0.002922 -0.000178 0.000033
-0.015314 -0.001433 0.000693
-0.018057 0.000811 0.002432
0.006155 -0.001443 -0.003504
-0.009141 -0.003056 -0.002240
0.013554 0.000673 0.001952
-0.006437 0.003576 -0.000699
0.015717 -0.003237 0.000546
0.012728 -0.002639 -0.001695
-0.028607 0.001402 0.003384
-0.005745 0.002642 0.001876
0.022645 -0.001434 0.002267
-0.005329 -0.001946 0.001937
0.018424 0.000448 0.002430
-0.029031 -0.001955 -0.001187
-0.025155 0.000432 -0.002026
0.010624 -0.000658 -0.002925
0.008968 -0.000568 0.003659
