ply
format ascii 1.0
element vertex 1600
property float x
property float y
property float z
end_header
0.062146 -0.010802 -0.002459
-0.062008 -0.018455 0.000817
0.022649 -0.003129 -0.009998
-0.007799 -0.002822 -0.002141
-0.017992 0.003138 -0.005024
0.036680 -0.021738 0.005483
-0.058236 0.000436 0.003262
-0.047790 0.001675 -0.007596
-0.005629 0.008997 0.002003
0.040795 0.000092 0.004087
-0.032238 -0.014554 0.000525
-0.031293 0.015642 0.005797
0.059642 0.008424 -0.004930
-0.016555 -0.016803 0.010283
0.002127 0.004214 -0.003216
0.058842 0.008455 0.001581
-0.050108 0.015784 0.004157
-0.066647 0.022335 -0.004848
-0.024118 -0.014366 -0.004799
-0.008613 0.000993 0.010917
-0.056336 0.007992 -0.001610
-0.008910 0.007569 -0.002935
-0.068399 0.018384 -0.008744
-0.051888 0.000796 0.000393
0.034018 -0.017841 0.004512
-0.042022 0.000663 -0.001585
-0.054651 -0.015705 -0.006861
-0.069391 -0.017226 0.001529
0.032437 0.021714 0.009254
0.003067 -0.009536 0.008902
-0.022037 0.010096 -0.005412
-0.021625 0.020056 0.005750
-0.041064 -0.007290 -0.000801
-0.066338 -0.000205 -0.008988
0.064874 -0.019641 0.002228
-0.005271 0.006395 0.008239
0.030769 0.002657 -0.004429
0.064089 0.014120 -0.009614
-0.060324 0.008242 0.010518
0.030275 0.004786 -0.008834
-0.005924 -0.010533 -0.002332
0.044740 0.001032 0.000779
0.021614 0.015515 0.001561
-0.034387 -0.020930 -0.003427
-0.059105 -0.001135 0.008150
0.035338 0.014048 -0.002710
-0.017791 0.017486 0.007630
-0.052421 0.017743 -0.009255
0.035310 0.001466 0.008906
0.041632 0.021735 0.001034
-0.044827 -0.015985 -0.008681
0.044409 -0.013240 -0.003449
-0.052989 -0.022193 -0.008176
-0.058259 -0.013114 0.006668
-0.034148 -0.004971 0.008025
-0.040642 -0.018664 -0.007716
0.055411 -0.016930 0.006070
-0.008333 -0.012981 0.003550
-0.052980 -0.009815 -0.007054
0.055139 0.017624 -0.008065
0.042690 0.018431 -0.003132
-0.052263 -0.016751 0.008844
-0.004665 0.008994 -0.006156
-0.055861 -0.008276 -0.000103
-0.051654 -0.010326 -0.003413
-0.034528 -0.020569 -0.004956
-0.016475 -0.003851 0.010854
0.035419 -0.012287 -0.007339
0.016843 0.017865 0.003128
-0.027052 0.011891 -0.005923
0.043297 0.004500 0.002979
0.059213 -0.001521 0.010561
-0.018683 -0.017081 0.007179
0.021646 0.015945 -0.010253
0.031704 0.009549 0.005741
0.018459 0.008011 0.001002
0.020903 0.003016 0.010006
0.016613 0.012749 -0.008449
-0.004615 -0.017435 0.009540
0.040764 -0.000310 -0.008363
0.048833 -0.006391 -0.007321
0.032892 -0.012311 -0.006303
-0.054850 -0.012848 0.010094
0.008640 -0.008858 -0.002974
0.025625 -0.016625 0.008888
-0.035390 0.010878 0.000560
-0.061863 -0.018561 -0.002482
-0.025318 -0.016561 0.004634
-0.013976 0.001318 0.000086
0.033746 0.003659 -0.004369
0.048056 -0.013202 -0.009482
-0.044557 0.003134 0.008729
-0.040169 0.005977 0.006514
-0.031332 -0.020498 0.006044
-0.019250 -0.008919 -0.003865
0.040721 0.008369 0.008072
-0.044452 0.003023 0.006657
-0.069205 0.017161 0.003032
0.009852 0.014387 -0.007452
0.011780 0.021521 -0.009631
-0.063910 0.018152 0.001052
-0.032801 0.014308 0.000157
0.052975 0.015481 -0.005987
0.051558 0.009962 -0.007309
0.006494 -0.000788 0.001562
0.066816 -0.005730 -0.003402
-0.034714 0.013542 -0.010888
-0.044538 0.018097 0.010070
-0.036801 -0.011100 -0.006284
0.010104 -0.012612 0.001156
0.063644 0.017916 0.004328
0.067886 -0.009063 0.002308
-0.064056 0.004622 -0.009782
0.039169 0.012653 -0.010032
-0.042959 0.020769 -0.006173
0.000539 0.005319 -0.000480
-0.009012 0.003070 -0.010352
-0.002977 -0.002441 -0.006300
-0.009872 -0.017789 0.010334
-0.055352 -0.011424 0.010081
-0.012260 0.012105 0.008742
0.012289 0.009973 -0.009508
-0.064747 -0.019529 -0.008198
0.062709 0.018170 0.005961
-0.016374 -0.014140 0.003170
-0.045716 0.006966 -0.002254
-0.061998 0.004636 0.000845
0.055260 0.015423 0.010738
-0.045028 0.004650 -0.008934
0.018738 -0.011644 -0.009603
0.015434 0.011293 0.003547
-0.040959 0.009081 -0.008802
0.004082 -0.014374 0.005962
0.020479 0.009520 -0.010695
-0.055972 0.020475 0.004575
0.039656 0.004819 0.004669
-0.050523 -0.005452 -0.004559
-0.037404 -0.007851 0.000677
-0.020857 0.016502 -0.001017
-0.059451 0.007756 0.010468
-0.065627 0.001209 0.000403
-0.001134 0.003859 -0.010139
0.018512 -0.018197 -0.006774
0.055826 0.015350 0.000886
0.017747 0.006298 0.000987
-0.024056 -0.001936 0.009089
-0.051019 0.010457 -0.006393
-0.045907 -0.007814 0.009644
-0.017851 0.020356 0.001565
0.019240 0.016595 -0.006074
-0.067049 0.014998 -0.009403
0.013806 0.015639 0.000526
0.006156 0.004026 -0.001761
0.050516 -0.005508 -0.004510
0.015711 0.007383 0.000955
-0.020007 0.021751 0.004907
0.066789 -0.000218 -0.006145
-0.038787 -0.021315 0.001014
-0.023070 0.013105 -0.005015
0.005200 -0.003208 0.004297
-0.049900 -0.017348 0.007652
0.033286 -0.002114 -0.001724
0.027082 0.000660 -0.006601
-0.035102 0.002123 -0.007517
0.015423 -0.012280 -0.007228
0.029802 -0.006735 0.009946
0.001046 -0.009292 -0.008192
-0.003890 -0.008574 0.007195
0.031542 0.000590 -0.010694
0.045517 0.000896 -0.006562
0.064502 0.016035 0.002100
-0.011412 -0.002851 0.001346
0.047724 0.018700 -0.009305
0.062857 -0.014285 -0.010300
0.020626 0.000078 -0.005422
-0.058177 0.004915 0.001132
-0.058118 -0.019344 -0.004072
0.054544 0.012817 -0.007882
-0.031913 0.020291 -0.003906
-0.029439 -0.020864 -0.005294
0.069520 0.013741 -0.000575
-0.016668 0.021012 -0.005950
0.003512 -0.016114 -0.003371
0.009374 0.005323 -0.009388
0.055025 -0.016784 0.008674
-0.012715 -0.016046 -0.003160
0.048197 0.003044 -0.001938
0.016333 0.021392 -0.006704
-0.031060 -0.022206 -0.008769
0.009693 -0.021617 -0.007502
-0.055804 0.008559 -0.010641
-0.068482 0.008692 -0.005311
-0.006230 0.014162 -0.005641
0.026100 0.013794 -0.005940
0.029493 0.011850 -0.009285
0.028839 0.008123 -0.008280
0.002071 -0.010040 0.004989
0.011182 -0.017338 0.006584
0.028866 -0.019877 -0.001344
0.055381 -0.014892 0.001651
0.057618 -0.021160 -0.005847
0.007274 -0.001816 0.000573
0.040275 -0.014781 -0.009372
-0.055251 -0.014321 0.009968
0.040202 -0.004094 0.006974
0.062170 -0.015380 -0.010371
0.003764 -0.015134 0.009696
-0.030430 0.003595 0.000748
-0.047666 0.014785 0.001276
0.054836 0.010062 -0.007967
-0.057758 0.020911 -0.007727
0.041792 -0.010640 -0.007907
-0.005678 0.019107 -0.008395
0.058140 -0.019746 -0.008636
-0.061751 -0.002651 -0.000224
-0.043560 0.001956 0.005081
0.039572 0.009115 -0.003639
-0.030869 0.021858 0.009529
-0.036410 -0.004157 0.007676
0.033965 -0.002940 0.003482
0.025692 0.018695 0.000094
-0.067721 -0.003975 -0.010880
0.002098 0.003926 0.008052
0.048290 0.016170 0.005693
-0.028080 -0.007517 0.004789
0.012810 -0.015243 0.005323
-0.045830 -0.010536 -0.003076
-0.021879 -0.004752 -0.001762
-0.002900 -0.011308 0.006299
-0.023420 0.016361 0.001365
0.054879 0.018569 -0.010931
-0.057028 0.009057 -0.008964
-0.048190 0.017072 0.000673
0.051085 -0.010332 0.006479
-0.053340 -0.018515 -0.001337
-0.060882 0.011762 -0.010019
-0.021409 0.010017 -0.008370
-0.054154 -0.013506 0.001404
0.062298 0.006190 -0.002414
-0.048538 0.013386 -0.001822
-0.050425 -0.022041 -0.000573
0.044611 -0.020052 0.009563
0.038953 0.014366 0.002783
0.021341 -0.012847 0.010325
-0.041540 -0.005040 0.004687
-0.007270 -0.014646 0.003242
0.025148 0.016050 -0.009011
0.033176 -0.013763 -0.003047
0.015359 -0.010077 0.000132
-0.036999 -0.016760 0.004640
0.001243 0.007242 0.006562
0.034596 -0.020254 0.004703
-0.013343 0.003782 -0.010839
-0.038953 0.018862 -0.001454
-0.064917 0.014538 -0.010852
0.041945 -0.020186 0.003704
-0.000318 -0.021312 -0.010647
-0.062537 0.020860 -0.007115
0.057812 -0.005844 -0.001761
0.056966 -0.002622 -0.003977
-0.037884 -0.006572 -0.005348
0.029578 0.015215 0.008696
0.061292 -0.006646 0.008984
0.028785 0.000208 -0.007522
-0.063004 -0.012531 0.008236
-0.046157 -0.008308 -0.007406
0.048856 0.012820 -0.005737
-0.043723 -0.021907 0.002232
0.057240 -0.016207 -0.008006
-0.011776 -0.014550 -0.010608
0.014463 -0.007100 0.007815
-0.034794 0.004390 -0.008319
-0.004451 0.021496 0.001531
0.023746 -0.010607 0.008135
-0.031630 -0.002683 -0.007036
0.000312 0.014840 0.001311
-0.006845 -0.000644 -0.007732
0.030118 -0.016849 -0.007146
0.030978 0.003631 0.008310
-0.051571 0.008937 0.008538
-0.003790 -0.005192 0.010102
0.015900 -0.019505 -0.004587
0.053961 -0.018270 0.000924
0.021106 -0.007667 0.007960
0.052837 -0.012980 -0.001234
-0.034272 -0.010782 -0.010839
0.019448 0.001835 -0.006026
0.041191 -0.009291 -0.001436
-0.026143 0.010111 0.005731
-0.023639 -0.020204 -0.001414
0.006338 -0.013214 -0.005193
-0.050540 -0.013408 0.009358
0.017893 0.008447 0.000521
0.035914 0.016062 0.000355
0.022299 0.020220 -0.006291
-0.004034 -0.021736 0.004058
-0.006761 0.004074 -0.004834
0.044904 -0.019385 0.009233
-0.049450 -0.022476 -0.006995
0.068674 0.013988 -0.003100
0.019246 0.007550 -0.004886
-0.022939 0.019354 0.003635
-0.015753 -0.006351 0.006007
0.026855 0.022254 0.006367
-0.002952 -0.006949 -0.007631
-0.055063 0.005168 0.004836
-0.053666 -0.007565 0.004287
0.038646 0.020426 0.008129
-0.030043 -0.010593 -0.002285
-0.040937 -0.017868 0.005665
-0.008212 -0.014721 -0.000296
-0.051709 0.003036 -0.004600
-0.039998 -0.000562 0.004789
0.063394 0.015342 -0.010315
0.045897 0.019121 -0.002947
0.027890 -0.003370 -0.001743
-0.047004 -0.015057 0.007191
0.053976 0.003474 0.008292
0.067665 -0.007386 0.004151
-0.028196 -0.020320 0.003681
0.010271 -0.009366 -0.000767
-0.007141 0.005790 -0.009932
0.064311 -0.011574 0.007522
0.022944 0.002121 -0.004874
0.057757 0.020359 0.009447
0.048757 0.001953 -0.010440
0.069958 0.017371 -0.006479
-0.012322 -0.007499 -0.001112
-0.005858 0.012362 0.005172
-0.040360 0.022254 -0.000009
0.057867 0.009318 0.000118
0.028246 -0.015585 0.001766
0.046158 0.013653 -0.003055
-0.066345 -0.017952 -0.010118
-0.048105 0.007053 0.002703
0.069952 -0.005546 0.009224
-0.030055 -0.015445 -0.009983
0.008485 0.000479 0.000734
-0.019138 -0.002384 -0.009184
0.021762 -0.021339 -0.010805
-0.030603 -0.005096 -0.002000
0.065363 0.012732 -0.003847
0.007982 0.017850 0.010722
-0.016087 0.011902 -0.004859
-0.051370 0.004667 0.010776
-0.040001 -0.000174 0.007018
0.057191 -0.003813 -0.009214
-0.010170 -0.020737 0.003679
0.008887 0.001831 -0.000036
0.007561 -0.016864 0.004371
-0.033514 0.005561 0.002762
0.048852 0.005374 0.007182
0.017910 0.003984 0.004189
-0.000356 0.016822 0.001900
0.037619 -0.001612 0.008594
-0.061858 -0.006615 -0.001411
-0.064539 -0.000624 0.002519
-0.001562 -0.020636 -0.010272
0.043435 0.003523 -0.010883
-0.043597 -0.014772 -0.008932
0.020985 0.009652 -0.005210
-0.061963 0.011438 -0.002650
-0.021626 0.020360 0.004178
-0.029736 -0.002726 -0.003916
-0.041298 0.002789 0.002908
-0.055088 -0.002184 -0.001330
0.011782 0.016378 -0.005284
0.047816 -0.013295 -0.010332
-0.033037 0.011512 0.008749
0.023790 -0.003027 -0.001804
0.053624 0.004202 0.005586
0.008330 -0.007543 0.001737
-0.036808 0.018688 -0.003471
-0.001612 -0.006670 -0.009281
-0.011706 0.000228 -0.008825
-0.037897 -0.013009 -0.009775
0.034804 0.010573 -0.009144
0.021472 0.000114 0.008762
0.019054 -0.006724 0.006596
-0.054931 0.011460 0.008673
-0.060019 0.012284 -0.002491
0.044867 -0.006293 -0.004543
-0.020487 -0.019913 -0.008545
0.037519 -0.008603 0.004951
0.052112 0.001552 0.007867
-0.021423 -0.008626 -0.010989
-0.035785 0.014621 -0.007878
0.045133 0.015304 0.000544
-0.056108 0.008445 -0.005993
0.004526 -0.009413 -0.001183
0.058132 -0.002415 0.009804
-0.002930 0.019841 0.009761
0.019998 0.003991 -0.007554
0.021398 -0.020049 0.004354
-0.041661 -0.008924 -0.004420
0.044180 0.008623 -0.009114
0.029603 0.019040 -0.009919
0.011760 0.011073 -0.007989
-0.018084 -0.015533 0.010907
-0.066652 0.002544 0.007341
-0.053907 -0.021515 -0.010682
-0.053018 0.012045 0.001708
-0.028779 -0.015478 0.003971
-0.031489 0.015577 0.006398
0.018817 0.021751 -0.005656
0.014010 -0.019982 0.008384
-0.042004 -0.006265 -0.006424
-0.064015 0.012258 -0.001300
-0.025807 0.021030 -0.003959
-0.065782 0.006662 0.009877
0.024310 0.013524 0.002070
0.056695 0.010950 -0.008148
-0.003392 0.020751 -0.003969
0.044234 -0.021832 -0.009046
0.063781 -0.021624 -0.010992
0.053294 -0.008845 0.000625
-0.005073 -0.002407 0.003086
-0.062222 -0.009885 0.004204
-0.019669 -0.017849 -0.002524
0.043491 -0.020537 0.008408
-0.045233 -0.000194 0.000088
0.046839 0.002618 -0.010648
-0.041654 -0.010503 0.005814
-0.055618 -0.019012 0.007486
-0.041262 -0.002858 -0.007794
0.001152 0.021427 -0.007691
-0.063336 0.001317 0.002372
-0.029807 0.014522 0.000256
-0.024382 -0.003238 0.008488
0.052490 0.009475 -0.005606
0.025735 -0.000933 -0.002654
0.011542 -0.001128 0.001870
0.047356 0.017138 -0.005040
-0.045233 -0.015004 0.007092
0.012927 0.021913 -0.010399
-0.003528 0.008320 -0.001001
-0.025219 0.012325 0.001986
-0.069279 -0.017891 0.008369
-0.013656 -0.005141 -0.010546
0.003979 -0.012281 -0.002722
-0.059785 0.017058 0.000299
0.054286 0.005955 0.010387
0.014641 -0.009770 -0.010001
-0.036511 -0.014646 -0.001507
0.034092 -0.012940 0.008766
-0.066329 0.002886 -0.008888
0.056554 0.005740 0.006275
-0.001538 -0.000605 -0.009847
0.069621 0.002465 0.003600
-0.013894 0.022234 0.002924
-0.038993 -0.013450 -0.006643
0.051288 -0.015904 -0.005501
0.001961 -0.016204 -0.010357
-0.024134 0.013682 -0.000425
0.031214 -0.012586 -0.001566
0.050791 -0.014383 0.010071
0.064633 0.013838 -0.007611
0.001523 -0.016320 -0.007391
-0.016767 0.015548 -0.005135
-0.007636 -0.014753 0.003992
0.018578 -0.011614 0.006767
0.060304 -0.005819 0.006086
-0.037920 -0.011955 -0.000953
-0.027059 0.020433 0.004692
-0.039733 0.008819 -0.004983
0.055043 -0.008212 0.006989
0.013338 -0.003385 -0.001229
-0.057837 -0.017944 -0.008526
0.055768 0.022478 0.000554
0.068325 0.009739 0.009737
-0.019104 0.021469 -0.007389
-0.034628 0.004937 -0.007630
0.053925 -0.016900 0.005724
0.028936 -0.015812 0.005401
0.023235 0.007714 0.007089
0.019657 0.010407 -0.010046
-0.049579 0.009512 -0.009078
-0.034159 0.008259 0.006824
0.015704 0.002717 -0.010877
0.039153 -0.006709 0.000760
0.013560 0.013049 0.002292
-0.018273 0.009860 -0.000152
-0.038500 0.008561 -0.001161
-0.057906 0.007202 -0.003643
-0.037844 0.019404 -0.003403
0.029751 -0.020498 -0.008792
-0.058315 0.007226 0.001110
-0.059765 -0.022109 0.006765
0.021598 0.004498 0.010545
-0.032028 0.022105 -0.003677
-0.038454 0.019551 -0.009854
-0.040408 -0.007838 -0.002275
0.024789 0.019220 0.009720
0.011727 0.003410 0.001310
-0.050266 -0.007816 -0.007018
-0.055637 0.017478 -0.005724
0.053520 -0.017142 -0.002049
0.018718 0.003839 0.002567
0.042520 0.014445 -0.003300
-0.019420 -0.011919 0.007928
0.015115 0.012941 0.002183
-0.033636 -0.012514 -0.009377
0.044555 0.010929 0.002509
-0.000413 -0.017523 0.005113
-0.059669 0.008746 -0.008172
0.064715 -0.020033 -0.006402
0.026225 0.007654 -0.007616
0.015924 0.015124 -0.006932
-0.041490 0.020012 -0.000011
-0.067707 -0.008943 0.009685
-0.069342 0.011624 -0.000256
-0.004224 0.020521 -0.010981
0.040495 0.020045 -0.001583
-0.021393 -0.012534 0.006532
0.048003 -0.003452 -0.005814
0.058913 -0.019992 -0.001870
0.024938 0.008247 0.009899
0.022263 0.008520 -0.010931
0.007850 0.003646 -0.008119
0.045583 0.022374 -0.003767
-0.035906 -0.010468 -0.008645
-0.067595 -0.017957 -0.001181
0.040663 0.015124 -0.007055
-0.007192 0.019302 0.009339
0.041286 -0.015880 -0.003184
-0.018331 0.006495 0.007698
-0.015547 0.020867 -0.006010
-0.010439 -0.001487 -0.001611
0.027944 0.005576 -0.005364
0.035698 0.005473 -0.002114
-0.001559 -0.008471 0.001618
-0.059516 -0.000601 -0.001494
-0.044706 -0.004180 0.000995
-0.047781 0.013880 0.008378
0.027336 -0.012126 0.004271
0.004484 -0.000771 -0.003705
0.018229 0.005628 0.006896
-0.020997 -0.009699 -0.003813
-0.061397 0.001434 -0.008430
0.049831 -0.002175 0.004034
0.067711 -0.002582 -0.003094
-0.020504 -0.009988 0.001023
0.011827 -0.002594 0.005539
0.048173 -0.011586 -0.009247
-0.056186 0.004775 0.010905
0.008566 -0.002945 0.000651
0.066855 0.016097 -0.004397
-0.009767 -0.008300 -0.003435
0.042135 -0.018337 0.009860
0.029941 -0.005909 0.003430
0.059117 0.007509 -0.003796
0.002007 0.005617 -0.006788
-0.004443 -0.001357 0.004710
-0.003083 0.001232 -0.001184
0.014221 0.019339 0.008625
-0.014504 0.008820 0.002953
0.020152 -0.012683 0.010292
-0.062919 0.005593 0.006158
0.016411 0.019629 -0.007407
0.045758 -0.021555 -0.005507
0.005296 0.021745 -0.004687
0.050783 0.009785 -0.000384
0.003629 -0.006534 -0.006211
0.017824 -0.019976 -0.001262
0.060218 0.021051 0.001852
-0.017956 -0.020768 0.009942
-0.049083 0.013078 0.006469
-0.042150 0.012253 0.007868
-0.055281 -0.018930 0.010984
-0.055026 -0.007134 0.004943
0.010474 0.004621 0.006457
-0.008809 0.011422 0.006597
0.057362 -0.009553 0.007355
0.068246 -0.021699 0.004762
-0.001801 -0.017804 -0.007341
0.002119 0.020059 0.006684
-0.033752 -0.014530 -0.006359
-0.046861 0.011167 0.000176
-0.059999 -0.019667 -0.006652
0.047720 0.006051 -0.007398
-0.047972 0.006240 0.004052
0.017486 -0.016472 0.008569
-0.020636 -0.005451 -0.008811
-0.008593 0.007716 0.009288
-0.017950 -0.020221 0.006567
-0.009371 -0.007447 -0.010668
0.008099 0.000197 -0.004341
-0.032567 0.007334 0.010261
0.059243 0.005936 0.004865
-0.033427 -0.020597 -0.005717
-0.056501 0.020350 0.003330
-0.025548 0.005130 -0.005899
0.006489 0.000725 0.003788
0.066145 0.015245 -0.005780
0.066819 -0.003565 0.010284
-0.040050 0.000377 -0.002242
0.037935 -0.012098 0.007453
-0.006927 0.022161 -0.003327
0.023048 -0.014790 -0.010899
0.008657 0.004559 -0.001310
-0.010933 0.018111 -0.000699
-0.046840 0.006896 0.002819
-0.039398 0.011144 0.005679
0.052008 -0.009848 -0.006928
-0.047619 -0.018573 0.000281
0.053830 0.006804 -0.003698
-0.066237 -0.009168 -0.006631
-0.059760 -0.018322 -0.009813
-0.025221 -0.004144 -0.002956
-0.049488 0.003570 -0.001870
-0.047340 0.009875 -0.002174
0.027573 0.019149 0.006385
-0.055252 -0.000591 0.006089
-0.051187 0.018711 -0.008458
-0.045193 -0.005440 0.004740
-0.067037 -0.019881 -0.006126
0.046727 0.021144 0.003310
0.024678 -0.002054 0.009112
-0.057648 0.015703 -0.005358
0.068454 0.010907 0.007009
0.009114 -0.008621 0.005066
-0.055028 -0.000646 -0.001166
-0.014466 0.003846 0.004893
-0.034946 0.022493 -0.003810
-0.022237 -0.011574 -0.003274
0.036841 0.007290 -0.001193
-0.037320 -0.006327 0.007991
-0.047654 -0.005746 -0.009273
-0.036502 -0.006019 0.003508
0.042302 -0.010892 -0.007065
0.039336 0.000543 0.006390
0.062869 0.021761 -0.006839
-0.046781 -0.004065 -0.008619
-0.065082 0.009713 0.004401
0.015198 -0.005703 -0.003499
-0.050742 0.007911 -0.007661
-0.039994 0.004051 0.010922
-0.008013 0.019896 0.006190
0.034169 -0.006402 -0.001225
0.040730 -0.002818 0.004194
0.063967 -0.006929 0.002241
0.036298 -0.011563 0.004031
0.016746 -0.001377 -0.008113
0.010239 0.005453 0.004418
0.052388 0.009635 0.000675
-0.007957 -0.004243 -0.005229
-0.025095 0.013517 0.000412
0.022696 -0.002169 -0.006129
0.045729 0.005622 -0.004620
0.051899 0.006547 0.008830
0.054498 -0.013608 0.009570
0.059508 -0.019329 0.005074
0.069908 -0.020522 0.002945
0.050607 0.008327 -0.009509
-0.068039 0.004959 -0.001964
-0.009870 -0.008110 0.003350
-0.041032 -0.003099 0.004284
-0.005051 -0.020699 0.003603
0.002872 -0.011337 -0.010483
0.067047 -0.007411 0.009709
0.063645 0.016238 -0.003617
0.012688 0.020546 0.007124
0.053605 -0.012316 -0.009037
0.009392 -0.019245 0.003597
0.061035 0.017760 -0.002919
-0.061931 -0.002989 0.003647
0.002282 0.007069 -0.006226
0.027098 0.017080 -0.007144
0.051673 0.002901 -0.008846
-0.060957 -0.020564 -0.007488
-0.055349 -0.013440 0.002849
-0.062062 -0.004400 -0.004295
-0.064609 -0.015830 0.007626
-0.017920 -0.012401 -0.005662
0.005350 0.015587 -0.005816
-0.019967 -0.020351 0.001395
0.023439 0.001094 0.002502
-0.044857 0.013601 -0.000766
0.048985 -0.002238 0.003959
-0.002282 0.012157 -0.000642
0.000725 0.015900 -0.005686
0.042763 -0.021313 0.001463
-0.034029 -0.009600 0.007237
0.011705 -0.014182 -0.004539
-0.040975 0.017094 0.007698
0.053082 -0.018177 -0.000515
-0.031411 -0.021762 0.004602
-0.011900 -0.006124 0.001006
-0.006143 0.013532 -0.009835
-0.021698 0.015342 0.004984
0.018370 0.005483 -0.008358
-0.058964 0.001745 -0.009563
-0.008317 0.012525 0.001797
0.031641 -0.000838 0.002552
-0.021951 -0.017368 0.007757
-0.036994 -0.004766 0.002091
-0.030138 0.012429 0.005773
0.017857 -0.001292 -0.009909
0.050463 -0.016640 0.005548
0.033728 0.005333 0.009396
0.046520 0.001686 -0.002459
-0.026039 -0.017341 0.003319
0.038379 -0.013858 -0.000669
0.017545 0.021495 0.010081
-0.050251 -0.009396 -0.002157
-0.041300 0.011221 -0.004999
-0.020463 0.012761 0.008169
0.042445 0.018309 -0.004884
-0.015938 -0.014272 -0.010869
0.045735 -0.017246 0.008386
0.017925 -0.009885 0.006082
-0.004083 0.003395 0.008676
0.051476 -0.017666 0.007991
0.030035 0.012248 0.003270
0.010503 -0.021492 -0.010535
-0.056776 -0.007222 0.001894
0.045448 0.010575 0.000480
0.034342 0.018757 0.010779
-0.066339 0.020974 0.009422
-0.047724 0.002634 0.004044
0.011499 -0.014306 -0.002371
0.022117 0.003992 -0.004866
-0.005858 -0.014422 -0.002391
0.025186 -0.001378 -0.002039
0.066334 -0.001356 -0.001619
-0.006793 -0.002809 0.008007
-0.068725 0.000011 -0.003467
-0.002757 0.003747 0.001785
-0.065410 -0.013796 -0.003682
-0.030525 -0.001075 -0.005263
0.043448 -0.003063 -0.007106
-0.038847 0.003127 -0.004964
-0.007506 0.017213 -0.000385
-0.065155 -0.005135 0.007356
0.004466 0.009978 0.008594
0.023494 0.009777 -0.003783
0.008857 -0.020080 0.002763
-0.053189 0.011858 0.006953
0.011256 -0.012189 0.006431
0.004131 0.002192 0.010440
-0.002058 -0.018014 0.010328
-0.064939 -0.001395 0.002077
0.014750 -0.007852 0.004786
-0.065950 -0.017986 0.002511
-0.057436 -0.006362 -0.010733
0.055785 0.010209 0.003777
0.059336 0.013706 0.009633
0.028295 0.009143 -0.008530
0.063420 0.000187 0.008611
0.037190 -0.016056 0.002220
-0.024871 -0.010065 -0.006600
0.017635 0.014393 -0.010252
0.039414 -0.011061 -0.006290
0.053631 0.007465 0.002906
0.059870 0.000738 0.001266
0.034640 -0.019738 -0.001238
0.031245 0.004005 -0.009647
0.057925 0.003512 0.001495
0.060346 0.018081 -0.001639
0.023545 0.000016 -0.004957
-0.031306 -0.004644 0.009792
-0.057944 -0.012093 -0.001578
0.007589 -0.002967 0.009061
-0.023924 0.021911 -0.000096
0.030639 0.016606 -0.007888
-0.062083 -0.007379 -0.000129
0.000167 0.018583 0.007378
0.053253 0.013530 0.009673
-0.039574 0.001121 0.006557
0.053088 0.013166 0.005982
-0.035910 -0.019472 0.006626
-0.011085 0.003111 0.008303
0.048974 0.020398 -0.005592
-0.026358 -0.018802 0.004127
-0.016819 0.009359 -0.005429
0.020119 -0.000139 -0.008015
-0.009981 0.003468 0.009491
-0.055132 0.001136 0.003571
0.007202 0.021455 0.008022
0.014771 -0.006738 0.009653
-0.063530 0.017077 0.006749
0.038758 0.013339 -0.008399
0.039945 -0.016584 0.001481
0.045095 0.020597 0.008305
0.003528 0.018506 0.003969
0.061450 -0.010997 -0.004613
-0.046144 -0.006448 0.005209
-0.006830 0.003361 -0.007041
0.058723 -0.004480 -0.006775
0.057920 0.020899 0.005837
-0.030319 0.014100 0.003804
0.028217 -0.000057 0.000638
-0.003578 -0.012489 -0.002484
0.010963 -0.021234 -0.003850
0.022447 0.022026 0.008560
0.019233 0.004057 -0.007615
0.031754 -0.007604 -0.010047
-0.026988 -0.006541 0.003470
-0.037408 0.018012 0.003111
-0.018699 -0.016575 0.002636
-0.007406 -0.009888 -0.003525
0.040595 0.008567 -0.006436
-0.032865 0.007628 -0.000641
0.061337 -0.000352 0.005960
-0.038655 -0.001775 0.008887
0.014602 -0.001407 0.007828
0.063769 -0.018458 -0.005378
-0.036748 0.012174 -0.008634
0.015404 0.017385 -0.003987
0.054234 -0.018796 0.009954
-0.013167 -0.012586 -0.003404
0.005727 0.010518 -0.007007
0.034118 0.005807 0.008199
-0.033259 -0.003167 -0.000718
-0.014375 0.006601 0.001843
0.041713 0.004783 -0.004956
-0.055863 0.014582 0.006740
-0.013530 -0.019527 -0.002259
0.055211 0.003467 0.004971
0.011005 -0.018001 0.000442
0.032867 0.013409 0.007179
0.027032 -0.019605 0.008847
-0.041554 -0.002798 0.002603
0.030969 0.018328 0.003997
0.059164 -0.005883 0.009196
0.018841 -0.015216 0.001080
-0.035104 0.005828 0.006173
-0.064758 0.015896 0.007774
-0.001327 0.017357 -0.001877
0.011624 -0.011906 -0.004311
-0.027171 0.014725 0.010996
-0.062425 -0.008008 0.010945
0.029426 -0.011309 -0.005231
0.020773 -0.000974 0.010208
0.049844 0.006315 0.008564
-0.038215 0.019624 0.007944
0.055413 0.000856 0.010414
0.016867 0.022409 0.005170
0.026973 -0.008486 0.000586
0.001163 -0.015598 -0.008411
0.027065 -0.007445 0.002132
0.043079 0.012876 0.006340
-0.061173 0.016139 0.004996
0.063670 -0.011225 -0.001193
-0.037666 -0.006723 -0.007831
0.015457 0.018281 -0.000904
-0.017171 -0.001795 0.003815
-0.057634 -0.005402 -0.008839
-0.038025 0.016603 0.008242
0.000500 0.016499 -0.005244
0.010413 0.020125 -0.003052
-0.040795 -0.013818 -0.003738
-0.000912 -0.020474 0.010373
-0.047410 0.006280 0.000856
-0.039817 0.006145 0.004497
0.062554 0.009826 0.001687
0.031155 -0.017825 -0.006157
-0.032023 -0.012157 -0.009512
-0.059851 -0.011976 0.000843
0.042584 -0.006211 0.010904
-0.052023 0.014923 -0.003559
-0.020975 -0.007039 0.000627
-0.032564 0.015455 0.006401
0.061530 0.005193 -0.005688
-0.049766 0.017327 -0.006537
-0.045876 0.011207 0.004873
0.033065 0.000866 0.003096
-0.036834 0.007213 -0.000573
0.038948 0.021987 0.004386
-0.012953 0.011963 -0.008311
0.037989 0.014787 0.008163
-0.053852 0.013975 -0.004548
-0.064805 -0.018058 -0.004033
0.006301 -0.009745 0.007044
-0.004443 -0.009669 0.009994
0.066456 -0.008292 0.006530
0.019099 0.003492 0.001507
-0.020491 -0.020138 -0.000835
-0.041432 -0.000937 0.005942
-0.019026 0.019420 0.009076
-0.023963 0.014421 0.004396
0.016499 -0.007431 -0.000378
0.003382 -0.017927 -0.008251
-0.019908 0.009650 0.002995
-0.042682 0.012475 0.009406
0.055857 0.010714 0.000517
-0.050054 0.019260 -0.010576
0.037670 0.012907 0.000235
0.062060 0.001534 0.010573
0.037244 -0.022456 -0.010003
-0.047865 0.014038 0.004263
0.029174 0.019477 -0.001048
-0.000629 0.021345 0.001034
-0.008765 0.010435 -0.007028
0.017081 -0.022047 -0.002081
-0.017357 -0.016412 -0.006720
-0.028316 -0.014846 -0.008500
-0.018514 0.021776 0.010907
-0.067623 0.005123 0.007110
0.061821 0.015438 -0.002374
-0.040513 -0.015780 -0.007713
0.054150 0.005572 0.007403
0.028543 -0.021087 0.009970
0.009630 0.006018 -0.009026
-0.064115 -0.001522 0.009139
-0.007614 0.019906 0.005092
0.026664 -0.003938 -0.004177
-0.046110 0.002268 -0.001275
-0.035962 0.013437 -0.002851
-0.013189 -0.001026 0.008091
0.026654 -0.022339 -0.009350
-0.017501 0.021637 0.005137
-0.032121 -0.010749 -0.003655
-0.043649 -0.017380 -0.003748
0.067891 -0.007797 -0.003417
-0.061589 0.000254 -0.003472
0.045193 -0.014698 -0.002106
0.011972 -0.002694 0.005901
0.056256 0.019632 0.000313
-0.068614 0.005351 0.002322
0.037402 -0.015806 -0.009334
0.009513 0.004694 0.007585
0.001026 -0.003951 0.001794
-0.024523 0.002839 -0.004242
-0.024154 0.019287 -0.002612
-0.058079 0.007401 -0.010761
-0.014672 -0.003555 0.009933
0.002454 0.012953 -0.006779
0.044770 -0.003960 -0.007084
0.016494 0.021960 -0.000177
-0.052594 -0.011947 0.009937
0.022918 0.019020 0.001949
0.028505 0.010421 -0.008092
0.037611 0.016511 0.004403
-0.031744 -0.005560 -0.005214
-0.019024 0.012006 0.007658
-0.005112 -0.017141 0.004004
0.048097 0.001796 -0.008849
0.010088 -0.020121 0.005660
-0.001375 -0.011590 0.010667
0.029183 0.002031 -0.007963
0.035044 0.012396 0.002555
0.036005 -0.003308 -0.003185
0.030186 -0.017462 -0.003820
-0.061340 0.003757 -0.007817
-0.024469 -0.016358 0.000137
0.027364 0.007460 -0.004088
-0.067066 -0.015614 -0.000561
-0.056996 -0.011691 -0.006574
0.024368 -0.006302 0.009572
0.058753 -0.008360 0.004740
0.043068 -0.016190 0.002307
-0.009870 0.021796 0.004417
0.018760 -0.009124 -0.010598
-0.021072 0.003885 -0.001599
0.050388 0.008451 0.006209
-0.018823 -0.009806 -0.004569
-0.059818 0.012840 0.000281
-0.052963 -0.019424 0.008370
-0.022676 0.000763 0.001045
-0.065354 -0.017939 0.002168
0.020425 0.012011 -0.005149
0.059597 -0.007227 0.002285
0.041037 -0.000270 -0.008534
-0.001545 -0.013396 0.010773
-0.041522 -0.021113 0.010407
-0.026343 -0.004326 -0.001229
0.015840 0.002820 -0.005301
0.021050 0.013504 -0.004871
0.034712 -0.014840 -0.009083
-0.019454 0.021456 -0.004295
-0.035512 0.011255 -0.007514
0.001397 -0.011769 0.003854
0.020428 -0.008169 0.010048
-0.068418 0.016774 -0.001115
0.017393 -0.010384 -0.006797
-0.068591 0.006308 0.003735
0.060792 -0.005671 0.009622
-0.008926 0.019945 0.000408
0.069323 0.019484 0.008767
0.050670 -0.008902 0.008077
-0.017422 -0.020686 0.002371
0.045401 0.013700 0.009214
0.050448 -0.006933 0.005100
0.037410 0.009584 0.001703
0.052328 -0.016343 -0.005126
0.021572 0.015919 -0.002346
0.047006 0.001639 0.005463
0.037494 -0.008382 0.008111
0.037503 -0.009098 -0.002935
0.028901 0.012353 -0.007189
-0.020561 -0.013514 0.006639
0.063518 0.001718 -0.010991
-0.013456 0.016276 0.009083
-0.036457 -0.014101 -0.000605
0.036656 0.011756 -0.005403
0.032114 0.008193 -0.009840
0.043257 -0.006766 -0.006817
0.054649 -0.009927 0.007553
-0.053949 0.005084 0.006417
0.057015 -0.019376 0.005483
0.031944 0.011817 -0.010516
0.052303 0.001600 0.004927
-0.046940 0.008461 0.010448
0.018060 0.002153 0.002143
0.035937 -0.005520 0.007501
-0.018231 -0.010845 -0.002546
-0.066796 -0.010616 0.001156
-0.063796 -0.015162 0.003414
0.018276 -0.008052 -0.004691
-0.043544 0.020480 0.000541
0.022445 0.000140 0.001012
-0.035732 0.000008 0.010267
0.065916 -0.008517 0.000686
0.018611 -0.001718 -0.001377
0.034767 -0.022432 -0.005431
-0.043420 0.016998 0.000192
-0.059089 0.000434 -0.003711
0.013509 0.008376 -0.000642
-0.013587 -0.010386 0.006324
0.042444 0.015972 -0.001267
0.009367 -0.003581 -0.006675
0.068320 -0.010890 0.003362
0.018518 -0.013995 0.003979
0.016712 0.011720 0.010407
0.054638 -0.009632 0.009295
0.038268 0.015026 -0.001729
0.052250 -0.006855 0.004120
-0.056821 -0.010490 -0.008336
0.027985 0.017308 -0.005389
0.041149 -0.007456 -0.009038
-0.026352 0.011430 0.000992
0.022998 0.009006 0.009578
0.057932 0.008445 -0.002556
-0.041998 -0.003397 -0.004949
0.064424 -0.008441 -0.000297
-0.024068 -0.006190 0.000863
0.002560 0.010424 0.002758
-0.052177 0.010348 0.010544
0.024456 -0.017557 -0.001628
-0.056993 0.020429 -0.004410
-0.065362 0.009526 0.005428
-0.041396 0.020211 0.009842
0.041860 0.017297 0.010804
-0.029308 0.010524 0.010755
-0.064096 -0.005999 -0.001638
0.034761 -0.008117 -0.010261
0.012682 -0.004019 0.010283
-0.026701 0.018609 0.010362
0.055657 0.013279 0.010067
-0.008008 0.004521 0.003387
0.028064 -0.017251 0.009753
0.067345 0.008179 0.004367
-0.051441 0.015294 -0.010053
0.064806 -0.012952 0.006698
0.030124 0.006783 0.004517
0.026733 -0.017864 -0.009269
-0.006921 -0.009441 -0.007115
0.061377 -0.022132 0.002117
-0.014377 -0.017551 0.000431
-0.034691 -0.007344 0.003280
0.035110 0.002850 0.007012
0.044664 0.021411 0.007874
-0.048977 -0.003777 -0.008667
0.023549 -0.014339 0.010269
-0.007855 -0.019273 0.010956
0.022508 0.017291 -0.008189
0.069560 -0.000297 0.003102
0.042957 0.008437 0.002317
-0.062501 0.014733 -0.005891
0.058454 -0.001366 -0.002208
-0.051136 -0.000402 0.008413
-0.035236 -0.016824 -0.009113
0.052631 -0.018260 -0.007770
0.061090 -0.021070 0.005341
0.068964 -0.013886 0.003350
0.019372 -0.020631 -0.009415
0.068356 -0.007473 -0.009549
0.067815 -0.013667 0.003164
0.009146 -0.004784 0.009052
0.067531 -0.012570 -0.006241
-0.057411 -0.018205 -0.004731
-0.010260 0.002543 -0.004451
-0.046198 -0.015384 0.003033
-0.045897 -0.009146 0.005523
-0.005037 -0.010615 -0.005314
-0.040386 -0.019233 0.008728
0.032306 0.015656 -0.009018
-0.060533 -0.014092 -0.007974
0.015232 -0.013799 -0.003394
0.055970 -0.004769 0.008341
0.059312 -0.008380 0.004167
-0.023205 -0.008237 0.008526
-0.069526 -0.000168 0.005408
-0.058989 0.021141 0.010920
-0.023301 0.012491 0.003600
0.017344 0.015935 -0.004522
-0.030540 -0.008458 -0.005009
0.066761 -0.011518 0.003915
0.047057 -0.021242 -0.010570
-0.066996 -0.022316 0.008564
0.035598 0.001259 -0.001798
-0.001085 -0.007792 0.004647
0.061477 0.004891 -0.001002
0.028163 0.009943 0.003832
-0.002196 -0.018939 -0.008947
0.022086 -0.015627 -0.002014
0.027228 0.011457 -0.006504
0.046310 -0.004216 -0.008976
0.047603 0.002795 -0.000471
0.034085 0.021050 0.003493
0.044850 0.004491 -0.003926
-0.017398 -0.011969 0.008951
0.046350 0.022245 0.005684
-0.049242 -0.011997 0.000669
-0.062901 -0.017553 -0.009323
0.025979 0.005470 -0.008825
0.010582 -0.016009 -0.002653
-0.050689 0.001824 0.004971
0.067013 0.020056 -0.001621
-0.044614 -0.008706 0.007680
0.041644 -0.006674 0.010146
-0.057887 -0.003336 -0.001704
0.051155 -0.002663 -0.002004
-0.028784 0.006282 -0.008383
0.037505 -0.013799 0.010319
-0.003553 -0.013070 -0.007127
-0.011731 -0.004976 -0.008149
0.044193 -0.019927 -0.006090
-0.014578 0.000299 0.006680
0.032848 -0.018892 -0.002192
-0.005507 -0.008195 -0.000686
0.043265 0.015936 0.005173
0.025620 0.018440 0.003220
-0.031352 -0.010376 0.010027
0.018724 -0.000997 -0.009473
0.069579 0.001308 0.010615
0.033924 0.001967 0.000240
0.041283 -0.020049 -0.008279
0.016668 -0.001721 0.008772
0.064777 0.007587 -0.009190
0.056045 -0.006495 0.005156
-0.001687 0.019024 -0.002693
0.022779 -0.005656 -0.009984
-0.003011 -0.013933 -0.000883
0.012899 -0.007951 -0.000066
-0.025301 0.000196 -0.000766
0.004573 0.015776 0.006806
0.011437 -0.004685 0.006880
0.009224 -0.010795 0.004526
0.005627 -0.021695 -0.003967
-0.040774 0.002448 -0.005618
0.019396 0.016169 -0.006909
0.038211 -0.015462 0.010039
-0.009642 -0.005842 -0.002229
0.060841 0.001570 0.001449
-0.060096 0.019676 0.001060
0.007800 -0.009494 0.007590
0.069661 -0.017976 -0.006920
-0.038219 -0.004970 -0.001777
0.014363 -0.000717 -0.002803
0.010288 -0.002848 -0.004865
-0.038778 0.011838 -0.001206
0.011244 0.017985 0.008579
-0.026805 0.009973 0.001835
0.040799 0.021273 0.009894
-0.006971 0.001139 0.002729
-0.018157 -0.000506 -0.000574
0.046493 0.010188 -0.007469
-0.061779 -0.012388 -0.000642
-0.001618 -0.007261 0.010368
0.021795 -0.014140 -0.006189
0.041909 -0.017309 -0.000231
-0.029774 -0.020060 0.004765
-0.044602 0.012260 0.001036
-0.018235 0.008038 -0.007506
-0.004495 0.022476 -0.010540
0.046655 -0.017778 -0.002196
-0.022591 -0.013742 0.008374
0.008388 0.001324 0.001306
-0.025488 -0.006318 -0.001178
0.035780 0.015066 -0.000802
0.067790 -0.001555 -0.009484
-0.064998 0.019809 -0.002520
-0.005401 0.021388 -0.000266
-0.034057 -0.015426 0.006336
-0.050606 0.002131 -0.008359
-0.043738 0.017191 -0.003863
0.016115 -0.014504 -0.001187
0.021668 -0.021265 -0.001212
0.030813 -0.009550 -0.010608
-0.020968 -0.022151 0.005969
0.019677 0.014165 -0.006994
-0.067201 -0.009752 -0.004946
0.067011 -0.015188 -0.007407
-0.032534 0.001152 -0.009709
0.013749 -0.012134 0.010904
-0.013878 0.001394 -0.006529
-0.004155 -0.014956 -0.000569
-0.032389 0.003781 0.008382
-0.061396 0.016433 0.006062
0.010592 -0.016153 -0.005793
-0.006137 0.001821 0.007326
-0.057179 0.019041 0.003588
0.046716 0.020760 0.005079
-0.026438 -0.007993 -0.005389
0.033556 -0.013017 -0.004369
-0.058184 -0.011767 0.007759
0.042703 0.010278 0.007730
0.067027 0.013359 0.003836
0.053093 -0.012708 -0.005905
-0.057774 0.020944 -0.005281
-0.017619 -0.000605 -0.008663
-0.002615 -0.006744 -0.003257
-0.010100 -0.005824 0.010428
-0.009284 -0.010617 0.006052
0.007030 -0.016151 -0.007290
0.047349 -0.001791 -0.010756
0.005417 0.020411 -0.002444
-0.068969 -0.008328 -0.007640
-0.022010 -0.016577 0.010572
0.042207 0.005563 -0.002850
-0.059618 -0.003368 0.010278
0.062043 -0.013509 -0.006820
-0.004859 0.013566 -0.004040
-0.024595 0.020242 0.006239
0.023523 -0.001907 -0.001091
0.033594 -0.021691 0.009773
-0.040677 0.009137 -0.002736
0.035114 0.019824 -0.008428
0.052241 0.005662 0.009186
0.035371 0.000127 0.008271
0.016359 0.006958 -0.003021
0.014144 -0.003794 -0.003284
-0.068612 -0.013528 -0.004824
0.031592 -0.020874 -0.009518
0.019611 0.019777 -0.004986
-0.022168 -0.005868 -0.009932
-0.027051 0.016818 -0.010227
-0.036965 0.017356 0.005507
-0.067593 -0.016892 0.010960
0.067909 -0.013164 0.004352
0.031394 -0.011642 -0.007795
0.006658 -0.014701 -0.004007
0.055125 -0.011448 -0.000111
0.024275 0.001320 0.003313
0.048517 0.001591 -0.002631
0.024854 0.014632 0.007867
0.004089 0.018691 0.000791
-0.000435 -0.007936 -0.006428
-0.005403 0.007824 0.010334
0.054799 0.010159 0.009568
0.029821 0.011669 -0.007578
-0.058792 0.001031 0.008938
0.058516 0.012829 -0.008374
-0.014506 0.014534 0.001811
-0.057585 -0.009437 -0.010909
0.022999 -0.017608 0.007549
-0.062336 -0.001122 -0.010022
-0.018009 0.020034 0.009126
-0.009565 0.002638 0.009220
0.059429 0.003303 0.004329
0.062283 -0.021774 0.003470
-0.059450 0.017246 -0.004437
0.066034 -0.009592 -0.005679
0.031704 -0.021261 0.002574
-0.015996 -0.003739 0.007869
0.035284 -0.021775 0.007559
-0.051163 0.002854 0.002830
-0.049930 0.004385 0.006275
0.069033 -0.021294 0.002135
0.062293 0.016702 0.007253
0.016235 -0.018398 0.006400
-0.055876 -0.011384 0.010954
-0.016444 -0.011211 -0.007958
0.031576 -0.020234 0.008206
-0.064561 0.009303 0.007728
-0.002292 -0.014077 0.003132
0.042005 -0.009444 0.008203
-0.044693 0.014146 0.005043
-0.015610 0.014755 0.008785
-0.034230 -0.008637 -0.004848
-0.005525 0.018481 -0.010915
-0.034382 0.021076 -0.008820
-0.027653 -0.006055 -0.005777
-0.056694 0.001680 -0.000451
-0.019725 0.010613 0.009692
-0.068947 0.001730 -0.003491
0.051748 0.010319 -0.010419
0.024263 0.009698 -0.006817
-0.045819 -0.001904 -0.003573
0.024267 -0.001876 0.009738
0.042511 0.009200 0.005632
0.020534 0.001592 0.007987
0.065551 0.005210 0.006154
-0.023936 0.003149 0.004587
0.015294 -0.017861 -0.001047
0.041707 -0.000492 0.008271
0.003493 0.010786 -0.005590
-0.042859 -0.004508 -0.008842
-0.024386 0.006446 -0.004860
-0.044912 -0.018383 0.007364
0.035231 -0.007695 0.009068
-0.067950 -0.003919 0.009139
0.017683 0.011567 -0.000933
-0.053410 0.005679 -0.005969
-0.003088 -0.006796 -0.006842
0.010801 0.015767 0.008758
-0.039808 -0.016889 -0.005180
-0.007211 -0.012683 0.003415
-0.042790 0.020490 0.001428
0.035329 0.013496 0.001009
-0.036132 0.002483 -0.008905
-0.056894 -0.011954 0.006769
-0.059150 -0.000533 -0.004056
-0.025614 0.014777 -0.005411
0.045312 0.012628 0.006828
-0.066383 0.003361 -0.004842
-0.006409 0.015067 0.010791
-0.038276 -0.016519 0.005227
-0.054279 -0.004892 0.003793
0.044350 0.012657 -0.009802
0.020286 -0.021284 -0.002715
-0.063930 -0.012690 -0.007625
0.005919 0.011207 -0.005789
-0.009446 -0.013102 -0.005452
0.020302 -0.003373 -0.001397
0.020188 -0.006276 0.006580
-0.027909 0.014116 -0.001798
0.017042 0.000860 0.003064
-0.012903 -0.019644 -0.006038
-0.059166 -0.018587 0.006939
-0.015417 0.011184 0.005526
0.063328 0.019548 0.002234
0.063400 0.020530 -0.010940
0.036561 0.022318 0.002372
-0.034136 0.011521 -0.000161
0.001613 -0.008814 0.008394
0.064928 -0.021128 0.004952
0.019455 0.003874 -0.007176
0.035509 -0.009160 -0.001563
0.006816 0.006128 -0.007109
-0.002363 -0.016685 -0.004944
-0.067014 0.013380 -0.010458
0.042395 0.007680 -0.010203
-0.014556 -0.017156 -0.009848
0.053065 0.006734 -0.008600
-0.068474 0.008660 -0.009047
0.052714 0.011250 -0.001434
0.026967 -0.018013 0.005279
-0.020695 0.005903 0.009849
0.069859 -0.003141 -0.005931
0.069298 0.017183 -0.010985
0.042173 -0.013092 0.009720
0.041383 0.010767 -0.001007
0.024929 -0.012032 -0.003348
-0.021771 0.020489 0.002375
-0.025319 0.013030 0.007699
0.060923 -0.002291 -0.006493
0.048437 0.017629 -0.006702
0.002895 -0.000315 0.000178
-0.066732 0.013466 0.002994
0.066238 0.010147 0.004776
-0.007526 -0.001177 0.004232
0.057677 -0.017612 0.006130
0.034787 -0.010511 -0.009314
0.002556 -0.020153 0.001300
0.066612 -0.014063 -0.005810
0.008312 0.008817 -0.002290
0.032182 -0.022298 -0.005261
-0.037508 0.015363 0.007269
-0.061881 0.006227 0.002397
0.004121 -0.000843 -0.005763
0.051473 -0.005172 -0.007660
0.063817 0.003908 0.003795
-0.010021 0.006687 -0.001137
0.058807 -0.017186 -0.009350
0.059680 -0.006282 0.007628
0.049523 -0.006440 0.001745
0.002209 -0.012200 0.009800
0.028282 -0.012498 0.002137
0.009246 0.002019 0.002634
-0.023760 0.006065 0.009900
-0.030942 0.005736 -0.005381
-0.023679 0.005341 0.009042
-0.058216 -0.005233 -0.009661
-0.053623 -0.004785 0.006909
-0.035148 0.005694 -0.006213
-0.040384 0.004164 0.006414
0.028976 0.004663 0.010198
0.033810 0.020516 0.003738
-0.031551 0.004028 0.005698
-0.024980 -0.004443 -0.005466
-0.047673 -0.008076 0.005772
0.007529 0.020166 0.001303
-0.026999 0.012916 -0.003639
-0.005855 -0.012346 -0.010215
0.005718 -0.018528 0.002555
-0.059801 -0.013660 0.010872
0.025366 0.014176 0.006154
0.057978 -0.014475 0.010031
-0.043048 0.005974 -0.010568
-0.001523 0.002534 0.003659
0.056593 0.011439 0.008329
-0.051452 -0.001512 0.010323
0.003972 -0.001364 -0.005569
0.067100 0.012769 -0.001137
0.050027 -0.004631 0.006210
0.034389 -0.008103 0.005305
-0.039860 -0.018415 -0.006172
-0.050018 0.005996 -0.010182
-0.048341 -0.016682 -0.003803
0.063175 -0.011632 0.007526
-0.026944 -0.015234 0.003089
0.014665 0.004444 0.006855
-0.040616 -0.015746 0.004122
0.002484 -0.000250 0.001451
0.053080 -0.000414 0.008379
-0.068585 0.017379 0.006100
0.031661 0.016914 -0.000995
-0.015856 -0.008196 0.006419
0.063378 -0.022497 -0.000865
-0.004442 0.018204 -0.010023
0.004021 -0.009123 0.001080
-0.053006 -0.017293 0.010218
-0.000286 0.003050 0.008649
0.059387 -0.003573 0.000650
-0.049800 -0.006274 -0.008017
0.062494 -0.000208 0.003470
-0.038796 0.012225 -0.006712
0.011484 -0.020613 -0.002504
-0.043646 -0.013541 -0.004335
-0.003737 0.010073 0.005578
0.053485 -0.017902 -0.008644
-0.054825 0.003898 -0.006831
-0.067789 -0.009060 -0.007129
-0.066255 0.010614 0.000068
0.030427 0.021875 0.000123
-0.069146 -0.020893 -0.009508
-0.029737 0.009005 -0.004960
-0.020122 -0.009184 0.004888
-0.008860 0.009798 -0.003532
0.054010 0.021170 -0.006739
-0.032715 0.000456 -0.007366
0.032452 0.015660 0.000664
0.026911 -0.019987 -0.005453
0.018452 -0.011121 0.004226
-0.058367 -0.007172 0.002056
-0.001937 -0.009495 0.001858
-0.037357 -0.011341 0.002044
0.016366 0.000390 0.004623
-0.011183 0.006311 0.005418
0.065894 0.020038 -0.007407
0.032596 -0.016962 -0.006429
0.035710 0.014650 0.003949
0.050046 -0.001916 0.008674
-0.028030 -0.016774 -0.006133
0.011444 0.019757 0.006646
0.044129 0.017975 -0.008364
0.069114 -0.006473 0.003429
-0.033511 0.012852 0.007323
0.016095 -0.018674 0.010112
0.027918 0.004872 0.008773
-0.031003 0.006727 -0.005614
-0.010960 0.018887 -0.000250
-0.065978 -0.000578 -0.000849
0.014575 -0.003335 0.002902
-0.055025 -0.018104 -0.008650
-0.007251 -0.016584 -0.005126
-0.007815 -0.003558 -0.004009
0.063709 0.020151 0.008642
-0.032479 0.009849 0.004213
-0.037473 0.020458 0.002546
-0.038868 -0.005833 0.001890
0.042154 0.019800 0.008842
-0.031732 -0.018186 0.002923
-0.036169 0.009168 -0.004081
-0.027681 0.017740 -0.009185
0.043327 0.012757 -0.009386
0.025241 0.018458 -0.000112
0.007358 -0.006329 -0.010723
0.065262 -0.006105 0.001395
0.002021 -0.019771 -0.008099
-0.008607 -0.001735 0.005488
-0.011952 -0.017443 0.008086
-0.023869 0.006332 -0.000428
-0.009941 0.013144 -0.009744
-0.012847 0.004300 0.010451
-0.009997 0.011607 -0.001001
-0.025615 0.008203 -0.003255
-0.065689 -0.017971 0.003878
0.020837 -0.018085 0.003858
-0.011136 -0.015019 0.006833
-0.028577 0.002834 -0.002249
0.057051 -0.001975 -0.006145
-0.006765 0.010266 0.007616
0.007721 0.001920 0.010217
-0.068981 0.009731 0.000082
0.013859 0.010334 -0.004246
0.052572 -0.011867 0.002439
0.049800 -0.017045 0.004556
-0.064077 0.017906 -0.005725
-0.019051 0.004747 -0.000818
0.009855 -0.016125 0.000133
0.001177 -0.006464 -0.010004
0.002552 -0.021723 0.001531
0.017897 0.008889 0.006511
-0.053305 0.013117 0.000194
0.029101 -0.000654 -0.003639
-0.036882 -0.017170 -0.000573
0.023108 0.007665 0.009690
-0.063194 0.010060 -0.008035
-0.064016 -0.015408 0.002276
0.041228 -0.007689 -0.002401
0.012008 -0.022089 -0.005522
0.024813 -0.012266 0.003781
-0.028873 -0.007303 0.004379
-0.035744 0.014235 -0.004456
0.040172 -0.005886 -0.003805
-0.063520 0.006085 -0.000632
-0.029922 -0.007159 -0.000276
0.041662 -0.016987 -0.004496
-0.023893 0.009201 -0.005617
0.013912 0.019418 0.009257
-0.060300 -0.005249 0.008782
-0.026977 0.001904 0.008317
-0.044380 -0.014765 0.010454
-0.034325 -0.019573 -0.000524
-0.030338 0.011260 0.004871
0.057484 0.005084 0.010815
0.058900 -0.002296 -0.009900
-0.025755 0.019984 0.008994
0.019614 0.010568 -0.007294
0.010511 -0.021755 -0.006080
0.051983 0.021511 -0.000751
-0.029228 -0.014358 0.001895
0.056997 -0.005902 -0.007503
-0.037643 -0.008118 0.009167
-0.011839 0.021650 -0.005878
0.030575 0.008415 -0.008513
0.041725 -0.004472 0.003210
0.018382 0.003273 0.005503
-0.020321 -0.015425 -0.010467
-0.026384 0.011763 -0.004579
-0.019574 0.020994 -0.009765
0.042244 0.022195 0.008165
0.059354 0.002938 -0.001072
-0.062288 -0.007484 0.010478
0.023678 -0.000896 -0.010955
-0.064808 -0.017194 -0.009812
-0.009002 -0.020637 -0.008890
0.063434 0.010542 -0.006388
-0.040967 0.019441 -0.000252
0.060648 -0.003441 -0.010586
0.050542 -0.008768 -0.003301
0.015674 0.018915 -0.006450
-0.011495 0.011825 0.001911
0.022775 0.022476 -0.006241
-0.056845 -0.019371 -0.010576
-0.053988 0.006210 0.002365
-0.025653 0.020283 -0.009985
-0.067578 0.012366 0.002752
0.008335 -0.018000 0.002451
0.004082 -0.011138 0.009027
-0.042358 -0.009660 0.003441
0.037663 -0.015467 0.000323
0.069527 0.007682 -0.010620
0.028383 -0.005352 -0.007873
-0.067889 0.011812 -0.010833
0.058747 0.004302 -0.010722
-0.032805 -0.022061 -0.003535
-0.023021 -0.014991 0.000726
0.031832 -0.014757 0.000745
0.049906 0.018636 0.004244
-0.030443 0.015273 0.005336
0.039596 0.019366 -0.004922
-0.031896 -0.018453 -0.002989
0.038003 -0.018309 0.004110
0.033891 -0.012925 -0.002131
-0.033145 0.000454 -0.002428
0.054328 0.020635 0.010436
-0.055524 0.012918 0.005297
0.026240 0.008086 -0.008660
0.015498 -0.004103 0.010021
0.014591 -0.019161 0.007291
-0.002401 -0.002710 -0.000084
0.067066 -0.003978 0.008372
0.003754 -0.001483 0.002665
0.052417 -0.015864 0.003468
-0.046130 0.012886 -0.001202
-0.054453 0.020830 0.007009
-0.019733 0.000027 0.010674
0.062147 0.010055 -0.002093
0.066964 -0.010420 0.010122
-0.011341 0.002523 0.003663
-0.019491 -0.012476 0.008353
-0.036905 -0.016063 -0.005535
0.063014 0.008177 -0.001590
-0.054913 0.020239 0.007767
-0.027107 0.000324 -0.000614
