ply
format ascii 1.0
element vertex 1500
property float x
property float y
property float z
end_header
-0.022878 -0.000361 0.003578
-0.085425 -0.003644 0.001039
0.013101 -0.003072 0.003163
-0.006296 0.001276 0.003175
0.010173 0.004592 -0.000385
-0.061325 -0.004122 -0.004225
-0.086099 -0.001672 -0.005131
-0.072955 -0.004230 -0.000805
0.003505 0.003281 -0.004068
-0.011082 0.002120 -0.006970
-0.019025 0.005454 0.003004
-0.089626 -0.003059 0.006659
-0.039976 0.002404 0.001212
-0.089953 -0.001540 -0.004181
-0.054443 0.002840 -0.006011
-0.080629 0.003203 -0.003040
0.070435 -0.001908 0.003866
-0.041113 -0.003270 0.001699
0.011651 -0.000311 0.001162
0.081569 -0.003650 -0.004070
0.032389 -0.003914 -0.002589
-0.022690 0.000535 -0.007473
-0.024062 -0.001007 -0.000186
0.025182 0.005292 0.001617
0.011833 -0.000075 -0.000611
-0.054813 0.000528 -0.001869
-0.042057 -0.004083 0.006182
0.076864 -0.000655 -0.005546
0.070035 -0.003242 -0.005952
0.041890 0.002074 -0.003332
0.018812 0.004064 0.003576
-0.051565 0.005607 -0.003104
0.075723 -0.000697 -0.006842
0.054387 0.003595 -0.001385
0.036938 -0.000988 -0.005869
-0.080304 0.005378 0.000276
-0.066049 -0.000672 0.000280
-0.031970 0.006659 -0.003109
0.040818 -0.001080 0.005748
0.086593 0.000012 -0.007356
-0.032378 0.001644 0.000755
-0.036827 -0.003550 -0.005496
0.080162 0.000626 -0.006151
0.045656 -0.006908 -0.002247
-0.018769 0.000994 -0.005778
0.064074 -0.000139 -0.003026
-0.084671 0.003113 0.004985
-0.015319 0.005643 -0.000163
-0.039683 -0.006113 0.003198
-0.055144 0.002280 0.006218
0.087473 0.001643 0.001616
0.049356 -0.004420 0.002587
0.002360 -0.002624 -0.006417
-0.082847 0.000573 0.005877
0.073165 0.007169 -0.002046
-0.006557 -0.006816 -0.000047
0.039820 -0.001830 0.004096
-0.049862 -0.003768 -0.001347
0.019406 0.000287 0.005624
-0.089941 -0.005382 -0.001884
-0.081370 0.001588 -0.002501
-0.025799 -0.000128 -0.001471
0.066010 0.005024 0.003356
0.040604 0.003889 -0.003070
0.077363 0.000302 -0.001149
-0.036944 0.005127 -0.004253
-0.062465 0.000396 0.005541
0.044181 0.006791 -0.000911
0.006272 0.006204 -0.000782
-0.053050 0.001634 0.003707
0.006572 0.002564 -0.002353
-0.003384 0.005930 -0.003231
-0.006786 0.001651 0.001147
0.002745 -0.005295 0.004542
0.007755 0.000103 -0.005220
0.048486 -0.003849 -0.001395
-0.027606 -0.002940 -0.000485
-0.026877 0.004708 -0.003768
-0.075341 -0.002741 0.000258
-0.066623 -0.006033 -0.003223
-0.018547 0.004301 0.001622
0.006543 0.002472 0.001476
-0.002190 0.002743 0.000334
-0.048675 -0.000341 0.001157
-0.000728 0.005819 -0.003569
0.048251 -0.001290 0.001669
-0.050201 -0.005573 -0.000598
-0.074110 -0.002252 0.007039
0.080392 -0.007204 0.001410
-0.061726 -0.006472 -0.000295
0.008123 0.004929 0.003477
0.088006 0.004461 0.004706
0.046703 0.004464 0.001960
0.037554 0.001523 -0.004466
-0.024557 -0.003238 0.003067
0.061690 -0.001252 0.004586
0.036143 -0.000512 0.006727
0.010632 -0.001706 -0.005545
0.002806 -0.002978 -0.006298
-0.041507 -0.002061 0.002995
-0.070033 0.002106 0.000479
-0.007829 -0.004637 0.005395
-0.069387 -0.003159 -0.001979
0.075405 0.003139 0.003397
-0.066906 0.003412 -0.004974
-0.004711 0.001882 0.003979
-0.038806 0.002657 -0.004611
-0.028878 -0.000604 0.001000
0.016143 0.003466 -0.000823
-0.045039 0.002002 0.004128
0.061387 -0.002540 0.004065
-0.052714 0.005365 0.004359
0.030636 -0.004374 0.005512
0.081460 0.002522 0.004200
-0.010662 0.003465 0.001924
0.022869 -0.002131 -0.005086
0.015318 -0.000148 -0.003986
-0.026022 0.001082 -0.005962
-0.049391 -0.005327 -0.002855
-0.031974 -0.005629 -0.003595
-0.026350 -0.002037 -0.004340
-0.026612 -0.001633 0.000993
0.027889 -0.000138 -0.006796
-0.017677 0.002357 -0.001642
0.061933 0.002097 -0.002100
-0.067120 -0.002107 0.004381
-0.075931 0.001995 -0.000545
-0.045647 -0.006375 -0.003662
0.080611 -0.000365 0.006837
-0.033877 -0.002949 -0.003600
0.088737 0.001657 -0.007010
-0.025089 0.004910 0.005641
-0.029025 -0.001272 -0.002803
0.071572 0.003924 0.002025
-0.073682 0.002208 0.005674
0.070799 0.004571 -0.002147
-0.072526 0.001719 0.001674
-0.050116 -0.001804 0.005811
-0.048801 0.003911 0.005973
-0.045864 0.001914 0.006782
0.081651 0.003156 -0.000625
0.033319 0.000668 0.002292
0.013852 0.003512 -0.001286
-0.032147 0.005022 -0.004725
0.046622 -0.005229 0.005117
-0.067202 0.006941 -0.002577
0.032495 -0.004804 0.005267
0.037594 -0.004045 -0.002086
-0.039325 -0.000762 -0.002251
-0.005492 -0.006294 0.000911
-0.019041 0.001971 0.001488
0.019472 -0.000126 -0.005862
0.018661 0.000061 0.004380
0.044306 -0.004995 0.002422
-0.029445 0.001481 0.002401
0.029640 0.000790 0.006591
0.019933 -0.000808 0.000418
-0.010618 -0.000209 -0.007095
-0.014174 0.004796 -0.000366
0.087283 0.003500 -0.003782
-0.075459 -0.000572 -0.005055
0.083975 -0.001897 -0.002291
-0.028756 0.007098 0.001543
-0.059265 0.003926 -0.001288
0.013026 0.006081 0.002119
-0.052063 -0.000826 0.003914
0.038064 -0.005542 -0.000679
0.023367 0.000968 -0.006776
0.000403 0.001070 -0.005816
0.042277 -0.007480 -0.000337
0.040260 -0.001359 -0.001524
0.009985 0.002964 -0.000071
0.068127 -0.002723 -0.002488
0.016912 0.001288 0.004618
0.072466 -0.000949 -0.001792
0.057133 0.003331 -0.004524
0.002797 -0.006756 0.002501
-0.011322 -0.007458 -0.000621
-0.071991 0.000074 0.001183
-0.003089 0.000188 -0.005964
-0.059221 -0.003900 0.004925
0.032067 -0.000960 -0.000430
-0.084796 0.002852 -0.002776
0.048147 -0.004683 -0.003053
-0.001910 0.005947 -0.003221
-0.087749 -0.000459 -0.002746
0.081071 -0.005047 -0.002680
-0.027345 0.003882 -0.001735
-0.085014 -0.005055 0.001421
-0.068077 -0.000177 0.003802
0.072654 0.005083 0.000903
0.007539 -0.001739 -0.005605
-0.046762 -0.000587 -0.002337
-0.031925 0.002325 0.004543
0.072811 -0.000532 0.003297
-0.077595 0.001835 -0.000987
-0.086271 -0.003126 0.001981
-0.037821 -0.000748 -0.002991
0.026804 0.003244 -0.003279
-0.040145 -0.002147 -0.006292
-0.039753 -0.002873 -0.005765
-0.059604 0.002893 0.004717
0.028747 0.003605 -0.002693
-0.018091 -0.003392 -0.005824
0.022650 0.003822 0.004220
-0.088411 -0.004246 -0.003340
-0.069795 -0.003070 0.006325
-0.070629 -0.006294 0.001302
0.042225 0.005137 -0.002652
0.061011 0.000376 0.004446
-0.016433 0.005765 0.004686
-0.074705 -0.001420 -0.002991
0.081615 0.003073 0.005790
0.081563 0.002596 -0.004623
0.054523 -0.002295 0.003318
0.068646 -0.003490 -0.004644
-0.049272 -0.000259 -0.000482
0.065468 0.005827 0.003077
0.075489 0.004552 -0.005909
-0.073167 -0.006225 0.003196
-0.049827 0.003632 -0.002659
0.043085 0.000388 0.005753
-0.000428 -0.005510 -0.004644
0.080677 0.007119 0.001961
0.043773 -0.002939 -0.006189
0.084837 -0.006346 0.003427
-0.050758 0.001498 0.003929
0.054156 -0.003542 0.001881
-0.076436 0.000826 0.002527
-0.026316 0.004941 0.000100
0.060467 0.002419 -0.002264
-0.027409 0.001687 0.004058
0.074832 0.001925 -0.002551
-0.029509 0.002315 -0.006858
-0.047530 -0.001021 -0.003797
0.028307 0.001553 -0.003953
-0.073624 -0.002577 -0.004687
0.016752 -0.002888 0.006598
0.082673 -0.001561 -0.004995
0.064961 -0.002963 -0.003468
-0.066658 -0.005540 -0.003512
0.070165 0.002359 -0.004780
0.005345 0.006826 0.002246
-0.064930 -0.005181 -0.003760
-0.065381 0.006549 0.000700
-0.026517 0.001276 0.002393
0.029130 -0.006253 -0.000803
0.046164 0.003368 0.006349
0.027046 -0.001275 -0.001598
0.032597 0.006382 0.002213
0.083076 -0.002362 0.000519
0.077786 0.002991 -0.006407
-0.087088 0.002464 -0.000441
0.072993 0.006774 -0.000856
-0.018538 0.005496 0.003531
0.053070 0.000952 -0.004330
-0.029915 -0.001282 -0.001901
0.007411 0.003951 -0.000814
-0.064399 0.006693 -0.002035
0.022644 -0.003074 0.000805
0.063574 -0.003021 -0.005136
-0.027263 0.003007 0.005396
-0.073356 0.005407 0.000797
0.046327 0.005410 -0.001469
0.059219 -0.001614 0.006178
-0.011539 -0.000479 -0.002541
0.084549 0.000612 -0.007452
0.030623 0.002703 -0.006294
-0.000793 -0.002345 0.006329
-0.064719 0.002550 0.003988
-0.010434 0.000276 -0.006658
-0.036823 0.003160 0.005675
-0.034629 -0.002818 -0.001360
-0.023712 0.004579 0.000599
0.089698 -0.005294 -0.002844
-0.019219 0.006259 -0.002881
-0.058594 0.004924 0.005594
0.079293 0.003491 0.006011
-0.072717 -0.006127 -0.002942
-0.014920 0.006117 -0.002495
-0.047335 0.005333 0.000865
-0.011625 -0.001223 -0.003873
0.035894 0.004862 -0.003138
0.040784 -0.000334 -0.003779
-0.033610 0.001936 0.006544
0.071157 -0.004155 0.002417
-0.084084 0.006344 -0.003835
0.006171 0.000801 0.003293
0.046624 0.001819 0.005553
0.065468 -0.005373 0.004999
-0.072579 -0.000641 0.007311
-0.035149 0.002840 -0.003495
0.031779 0.000422 -0.003854
0.028056 0.003822 0.003372
0.051429 0.003957 0.006255
-0.017830 -0.005986 -0.003087
0.058724 -0.006852 -0.000733
-0.082127 -0.007308 0.000863
-0.019542 -0.007338 0.001437
0.065041 -0.001684 0.000975
0.073832 0.001396 -0.005899
-0.053403 0.000637 0.003927
0.076411 0.006509 -0.002654
-0.049969 0.000249 0.001054
0.007552 0.005678 -0.000178
-0.076240 0.004725 -0.005204
0.082756 0.001025 0.000522
-0.088135 0.006396 -0.000411
-0.053030 0.000936 0.005605
0.058466 -0.000254 0.001218
0.084649 -0.005666 0.001633
-0.068094 0.000677 0.002545
0.086892 -0.000929 0.000518
0.014564 0.005539 -0.002290
0.021810 -0.003409 0.000184
0.052080 0.005156 -0.004335
0.037843 0.000157 0.000227
0.083841 -0.003322 0.005314
-0.040907 -0.004485 0.000950
-0.012638 -0.000634 -0.002985
-0.016764 -0.001806 -0.000966
-0.062179 -0.002615 -0.003236
-0.006560 0.004973 0.001114
0.045275 0.004737 0.000238
0.043964 0.005174 0.001830
0.014960 0.001295 0.003946
-0.041856 -0.002317 0.002880
0.008109 0.002587 0.001702
0.062345 0.004621 -0.005721
-0.038088 0.000826 -0.002006
0.043296 0.003658 0.005321
-0.049533 0.001073 -0.000209
-0.043834 0.002658 0.004449
-0.055050 0.005358 -0.001191
0.018243 -0.001520 -0.004270
-0.002916 0.005080 -0.004326
-0.035184 0.006739 0.002596
0.083096 -0.001119 -0.004300
0.047807 -0.003599 0.005408
-0.041688 0.000942 0.005419
-0.047267 0.005593 -0.004342
0.084708 -0.006433 -0.001134
0.067425 0.001426 -0.000703
-0.047176 -0.000910 0.006254
-0.026054 -0.004279 -0.003348
-0.002747 -0.003508 -0.004887
-0.073969 -0.000221 0.004223
-0.038786 -0.005628 -0.004589
0.028913 0.002785 -0.006091
0.031659 -0.004275 -0.002047
-0.010369 -0.004767 0.003738
-0.032727 -0.003085 0.006126
0.028949 -0.007013 -0.000637
0.046910 0.005245 -0.002914
-0.023578 -0.003714 -0.001194
-0.026759 0.004047 0.005940
-0.030344 0.002466 0.000075
-0.035573 -0.004287 -0.005420
0.018649 -0.001563 -0.004603
0.064169 -0.004236 -0.001052
0.029629 -0.001287 -0.002248
0.055273 0.006406 0.002214
0.015058 0.002958 -0.005550
-0.016815 0.006632 -0.001441
-0.059700 0.001444 0.002216
0.089061 0.001647 0.004478
-0.016121 0.001261 0.006428
0.024736 -0.006221 0.001750
0.088708 -0.004925 -0.001030
0.064667 0.004974 0.003029
-0.040163 -0.000683 -0.006684
0.061702 -0.000791 -0.005111
-0.002414 -0.006539 -0.002443
0.016262 0.006034 -0.001013
-0.038921 -0.003955 -0.003690
0.061245 -0.000825 -0.000917
0.067018 0.005795 -0.004721
-0.036488 -0.000591 0.002219
0.006231 0.003523 -0.006572
-0.004889 0.002591 -0.005281
0.077591 0.004245 0.001485
-0.034502 -0.001502 -0.005677
0.023713 -0.006813 -0.000644
0.013852 -0.005547 -0.001332
0.025208 -0.003999 0.000142
0.037779 0.006695 0.001586
0.011515 -0.000018 -0.000439
0.047874 0.000432 0.002705
-0.057604 -0.006682 -0.002649
-0.066502 0.001959 0.003796
0.046554 -0.001259 0.006633
0.012592 0.000780 -0.004957
-0.049181 -0.000327 -0.001954
-0.005288 -0.001030 -0.003552
0.010141 -0.003278 -0.006057
0.016143 -0.003551 -0.001812
-0.061335 0.002900 0.002041
-0.081090 -0.004608 -0.000438
-0.026116 -0.003829 0.004779
0.060255 -0.000584 -0.007213
-0.034990 0.006262 -0.002567
-0.036480 0.002269 -0.004086
-0.086815 0.000572 0.004933
0.035876 0.006075 -0.004267
0.033377 -0.001529 -0.002220
0.047239 -0.002210 0.003432
0.005958 0.003772 -0.003194
-0.031503 -0.000893 -0.004111
-0.025532 0.004261 0.004754
-0.009190 -0.005794 0.003044
0.011241 0.000774 -0.002193
0.079273 -0.002361 -0.005947
-0.078923 -0.004320 0.000586
-0.003834 0.002031 -0.001366
0.088108 -0.002099 0.005239
-0.020905 0.001377 0.003835
0.026600 0.002322 0.004833
0.056454 0.004359 0.005358
-0.016002 -0.003720 0.005394
0.038992 -0.005068 0.003799
0.032464 -0.000585 0.002031
-0.083464 -0.004326 -0.002593
0.032763 0.001135 0.001717
0.064353 -0.005103 0.000791
0.023638 0.006037 -0.004323
0.043891 0.000133 -0.001555
-0.084514 -0.003730 0.006207
-0.031739 -0.006762 -0.000085
0.027813 0.000717 -0.007038
0.081285 0.000152 -0.006428
0.047656 0.006011 -0.000944
-0.088776 -0.002589 -0.003668
0.073913 -0.003569 -0.002269
-0.084871 -0.004970 -0.000384
-0.037067 -0.006645 0.000450
-0.009903 0.006096 0.000022
-0.007777 0.005004 0.000280
-0.061144 -0.000498 -0.006669
0.045910 0.002351 0.003563
-0.007066 -0.004313 -0.003549
-0.076940 -0.001948 -0.001477
-0.053920 0.006241 -0.003218
0.078867 -0.006852 0.002830
-0.017719 0.004263 0.000539
-0.076504 -0.002722 0.000240
0.067799 -0.005390 -0.002876
-0.031895 -0.003566 0.004014
-0.022285 -0.003521 0.004956
0.021350 -0.000698 -0.002013
0.084516 -0.004003 -0.000072
0.060013 0.000540 0.002273
0.058012 -0.005188 0.004154
0.030007 0.000644 -0.002455
0.000365 -0.003461 -0.005933
-0.025347 0.006607 -0.000126
-0.054256 0.001501 0.000754
-0.009138 -0.005406 -0.001791
-0.039471 0.000597 0.007198
-0.029078 0.005769 0.003590
0.044537 -0.000766 -0.003055
-0.086024 -0.006967 0.000136
0.050299 -0.004727 -0.003987
-0.073227 -0.005342 0.003456
0.054636 0.006977 0.000553
0.065162 0.006329 0.000284
0.016557 0.002400 0.003757
0.005287 0.005134 -0.005307
0.051698 0.006527 -0.000259
0.011264 -0.002706 0.005666
-0.069830 0.006563 0.000549
-0.033686 0.001191 -0.007264
-0.058728 0.000897 -0.002101
0.024167 0.006934 0.002190
0.069034 -0.000664 0.002822
-0.019745 -0.001935 -0.006524
0.020084 -0.006806 0.002344
-0.075173 -0.004637 -0.004602
-0.040516 -0.006060 -0.002009
0.004620 0.002406 -0.002925
0.017201 0.004790 0.002517
-0.016048 0.005094 -0.004374
0.029333 -0.005725 -0.003679
0.018024 -0.004187 -0.005569
0.045304 0.003939 -0.003029
-0.014784 -0.003462 -0.006320
0.077478 0.006685 0.002870
-0.035845 0.001722 0.002819
-0.078702 -0.006542 0.002816
-0.019110 -0.001715 0.006337
0.008372 -0.006325 -0.002859
0.051015 0.004882 -0.000633
0.056877 0.007144 -0.000529
-0.077916 0.000344 0.000743
-0.038403 0.004534 0.000524
0.063041 0.003041 0.004953
0.026528 0.004480 0.002429
-0.019836 0.002251 0.006231
0.021087 0.000570 -0.004308
0.046643 -0.001073 -0.005289
-0.013938 0.003845 -0.001782
-0.084271 -0.003213 0.001874
0.047691 -0.003712 0.003166
-0.054246 -0.000146 0.005499
-0.022183 -0.003765 -0.005227
0.005760 -0.004999 -0.000107
-0.020447 -0.003155 -0.000582
0.055311 0.004434 0.004363
-0.013763 0.003807 0.001064
0.039364 -0.004217 0.005071
0.032073 0.001750 -0.004244
-0.064093 0.002852 -0.002525
0.032611 0.002221 0.001155
0.054035 0.001796 -0.006817
-0.015172 0.002315 0.007060
0.052805 -0.002164 -0.005257
0.041339 0.000566 0.007329
0.002881 -0.002229 -0.003196
0.031594 -0.002825 0.000537
0.084778 0.005438 -0.000667
-0.085141 0.003528 0.001730
-0.081663 -0.000415 -0.005759
-0.065336 0.003278 0.006165
-0.074027 -0.006761 -0.002552
0.038990 -0.000240 0.002803
-0.009823 0.005291 -0.000327
-0.074064 0.002924 0.002452
0.089790 0.002351 -0.000917
0.042124 -0.003104 0.002356
0.035634 0.003227 -0.002243
0.068505 0.002107 -0.005504
-0.085357 0.001621 -0.006520
-0.045974 -0.001467 -0.001323
0.037425 0.001229 -0.005184
-0.063331 0.000307 0.003242
0.043200 -0.004765 -0.002750
-0.048308 -0.001652 0.001898
0.047223 -0.000988 -0.002734
0.044172 -0.001905 -0.003650
-0.079332 -0.000220 -0.002850
-0.087894 -0.000321 0.007061
0.044677 0.001914 0.002498
-0.017952 -0.002656 0.004939
0.085070 -0.000496 -0.002476
-0.031771 0.002936 -0.006657
-0.051934 0.004647 -0.000895
0.023362 -0.001607 -0.000172
-0.002663 -0.006558 -0.000435
-0.080078 0.001229 0.006096
0.005230 -0.002423 -0.002824
0.061995 -0.002719 0.006956
-0.007996 0.006510 -0.000380
-0.070804 -0.004651 -0.000213
0.052061 0.001060 -0.002859
-0.012546 -0.006796 -0.002719
-0.027685 -0.003676 -0.003722
0.000822 -0.001567 -0.004713
-0.077641 -0.002378 -0.005501
0.086274 -0.002218 -0.004518
-0.086959 0.000519 0.002605
-0.067808 0.005942 -0.003409
0.005878 0.002388 0.001767
-0.078481 0.002551 -0.003293
0.024218 -0.002434 0.002200
-0.076168 -0.005658 -0.003717
0.016552 -0.003561 -0.000541
0.033200 0.003699 0.000251
-0.061906 0.002911 0.001769
0.000381 -0.002473 0.004108
-0.083637 0.003121 -0.000655
0.058989 0.003246 0.000962
0.004194 -0.000367 -0.002374
-0.016807 0.000199 0.001514
-0.020702 0.002793 -0.001266
-0.009262 0.007184 -0.001573
-0.086790 -0.000040 -0.003784
0.036008 -0.000079 -0.004849
0.052750 -0.002591 -0.002515
-0.066694 -0.004812 -0.002523
-0.051435 -0.001949 0.005241
-0.047774 -0.006070 0.003272
-0.074092 0.004956 0.003042
0.004178 0.000288 0.007118
-0.078466 -0.000350 0.007091
0.067327 0.002358 0.001409
-0.008294 -0.001318 -0.004098
-0.086980 0.002230 -0.003348
-0.049685 0.006524 -0.003444
0.086203 -0.005940 0.003179
0.031705 0.003107 0.000068
0.069426 -0.001789 -0.001587
-0.038931 0.007334 -0.001030
0.076006 -0.007149 0.000804
0.022074 0.003576 -0.005945
-0.001717 -0.006831 0.001869
-0.043234 0.006420 0.003702
-0.029178 -0.007472 -0.000508
-0.027112 -0.003143 -0.006418
0.044820 -0.007064 -0.000115
-0.059599 -0.005669 -0.002092
-0.050957 0.004302 0.003067
0.062060 0.005126 0.004356
0.013249 0.003913 0.002662
-0.050926 0.004836 0.001419
0.069164 -0.001411 0.001699
-0.069598 -0.000377 -0.006514
-0.034258 -0.002635 -0.000770
-0.067811 0.004545 0.004529
0.046915 0.004959 -0.000293
-0.072881 -0.007165 -0.001221
0.037939 -0.003318 0.005905
-0.004397 -0.003194 -0.003841
-0.059388 -0.004662 -0.001520
-0.027256 -0.006592 -0.001284
0.077923 -0.005683 -0.000923
-0.005775 -0.004646 0.004727
-0.000510 0.001539 -0.003580
0.074819 0.007076 -0.001762
-0.037951 0.001998 -0.000476
0.048931 -0.003467 -0.005310
0.008895 0.002514 -0.002151
0.071260 -0.001470 -0.005728
-0.084100 -0.006622 -0.001281
0.068454 0.005198 -0.005024
-0.064908 0.003572 0.003872
0.077255 0.006175 -0.001522
0.015709 -0.004319 0.005196
-0.031373 0.001970 -0.006685
-0.060304 -0.002721 0.000852
0.006144 -0.004847 0.000309
0.046724 -0.001285 -0.001322
-0.013243 -0.004263 0.004912
0.015422 0.000601 -0.003801
0.060191 0.001011 0.002021
0.046547 0.003046 -0.005205
0.051402 -0.005735 -0.000630
-0.015583 -0.001564 0.003903
0.081708 -0.000106 -0.000601
0.028144 0.004646 -0.001286
0.000920 -0.002819 0.002350
0.071248 -0.005077 -0.004236
0.084014 0.001684 0.006971
-0.016396 -0.005816 0.000460
0.088095 -0.004606 -0.004018
-0.085825 -0.004670 0.001548
-0.035163 0.000804 -0.003113
-0.044798 -0.003839 -0.004899
-0.029662 -0.005399 0.001719
-0.062580 -0.001016 -0.005264
0.028660 -0.003747 -0.003315
0.032725 -0.005086 0.001134
-0.050572 -0.003083 -0.005310
0.005785 -0.001067 -0.000641
-0.018401 -0.003522 -0.003038
0.056114 0.002324 -0.002419
0.020247 -0.002017 0.000725
0.018852 0.001230 0.006331
-0.001250 0.004269 0.001360
0.016222 -0.001962 -0.000779
0.077039 0.004690 0.002824
0.039012 0.007261 -0.000537
-0.058329 -0.001931 -0.005952
-0.054574 -0.004109 -0.002276
0.008964 -0.005120 -0.000843
-0.053669 0.004188 -0.001480
0.043192 -0.006479 0.002368
-0.087930 0.002386 0.001143
0.066482 -0.000598 0.004145
-0.014333 -0.000777 0.003370
0.087326 -0.006636 -0.003114
-0.081542 0.002820 0.001565
0.050403 0.003299 -0.000019
-0.071558 -0.000338 -0.004838
-0.014032 0.000487 0.005230
0.003163 -0.001252 0.001824
-0.033800 0.000372 -0.007191
-0.074216 -0.006658 -0.001690
-0.073965 -0.000340 0.001815
0.080937 -0.005915 -0.003496
0.086663 0.005808 -0.004292
-0.063198 -0.003546 -0.000118
-0.006075 0.000811 0.001705
0.004565 0.004233 -0.002023
-0.081933 -0.003248 0.000898
0.012704 -0.001334 0.001881
0.082843 0.004589 -0.002855
-0.022139 -0.006427 -0.001817
-0.005674 0.000799 0.005291
0.026678 0.004377 -0.001560
-0.031644 0.000761 0.003149
0.018420 -0.005257 0.002731
0.037677 0.006913 0.000606
-0.000357 0.005450 -0.002885
0.044194 -0.002167 0.004205
0.004134 -0.005481 -0.000302
0.049992 0.003130 0.001252
-0.028716 0.000772 0.006334
-0.065325 0.004848 -0.001231
-0.048744 0.005416 0.004502
0.023749 0.006625 -0.000466
0.011109 0.007048 -0.000981
0.041766 0.002572 0.001200
0.018016 0.003821 0.000019
0.011357 0.006844 0.002373
-0.047213 0.003538 -0.001905
-0.062643 -0.005311 0.001975
-0.078198 0.004584 0.003766
-0.018255 -0.002707 0.003866
-0.016292 0.006582 0.003538
-0.028878 0.000989 -0.007211
0.029527 0.001480 -0.000117
-0.056681 0.003545 -0.006210
0.036754 0.001585 -0.005717
0.046456 0.006025 0.000446
0.088271 -0.000822 0.001568
-0.062149 0.004412 0.005463
-0.001423 0.004317 -0.003842
-0.012937 -0.004426 -0.002256
0.075831 -0.001029 -0.006129
-0.037355 0.006824 0.002400
-0.050724 -0.002030 -0.006262
-0.067433 0.003213 0.000864
0.026295 -0.004731 -0.000773
0.068063 0.002720 -0.005711
-0.026200 0.001674 0.006111
0.010396 0.005034 -0.000719
-0.062259 0.004044 0.001005
-0.037725 0.001009 -0.000474
0.010042 -0.001494 0.000261
-0.026287 -0.001081 -0.001574
-0.062981 -0.000870 -0.005877
-0.025534 0.005056 0.000117
0.023566 -0.007127 -0.000098
0.010798 0.003670 -0.000736
0.068666 -0.001513 -0.005518
0.056824 0.000945 0.004473
-0.073739 -0.002943 0.002357
0.082541 -0.000801 0.003779
0.069655 -0.002301 -0.001472
-0.035614 -0.001481 -0.000184
-0.003767 -0.003996 -0.004140
0.008476 0.002039 -0.005341
0.008342 0.004427 -0.005716
-0.086578 0.005581 0.000312
0.030170 -0.004561 -0.004698
0.016453 -0.003896 -0.003383
0.057298 0.001109 -0.005603
-0.065736 -0.007123 -0.000560
-0.029227 -0.003053 -0.002664
0.055461 0.000867 -0.007388
0.057265 0.005989 0.002687
0.028414 0.002319 0.006386
-0.037310 0.002430 0.001581
0.069079 0.001641 -0.002096
0.064105 -0.004702 -0.000545
0.068593 -0.005388 -0.004289
-0.055762 -0.000937 -0.000139
0.011067 0.000213 -0.006221
-0.025951 -0.003127 -0.000438
-0.066050 0.006041 0.004093
0.021226 0.002613 0.005848
0.018608 -0.002796 -0.002666
-0.034049 0.004813 0.000570
-0.080603 -0.001079 -0.005430
-0.074094 0.001957 0.005943
-0.043445 -0.006086 0.000038
0.018419 0.001359 0.002375
-0.043452 0.002521 -0.001741
0.018853 -0.000961 0.000239
-0.021118 0.003028 0.001589
-0.001129 0.004938 -0.003747
0.025923 -0.004213 -0.004945
0.067609 0.002807 -0.003628
-0.078292 -0.003111 0.002386
0.024733 0.002471 -0.006451
0.071203 0.003418 -0.001667
-0.034173 0.002947 -0.000759
-0.063326 -0.003176 0.004911
-0.036710 -0.000637 0.002525
0.073346 0.001337 -0.001219
-0.046732 -0.000419 0.006697
-0.037997 0.004159 -0.005395
-0.060550 0.003127 -0.006285
0.066555 -0.006172 -0.002347
-0.072248 -0.000066 -0.000610
-0.020951 -0.001953 -0.001411
-0.047731 0.002249 0.004636
0.004689 0.004593 0.002288
-0.071803 0.005994 0.004172
0.030078 -0.007425 0.000677
-0.086470 -0.002622 0.006495
0.028097 -0.005461 0.004458
-0.006441 0.003670 0.002356
0.075637 -0.005802 0.002974
0.089595 -0.003151 -0.006557
-0.066837 0.002538 -0.005347
0.056614 0.001052 -0.006217
-0.071147 -0.003012 -0.002282
-0.064731 0.001411 -0.000495
-0.046733 -0.000973 0.001489
-0.044302 -0.000831 0.002202
0.012321 0.000524 0.006159
0.047053 0.003010 0.004584
-0.053901 -0.002180 0.002160
-0.033974 -0.002501 -0.003395
-0.058268 0.002219 0.005535
-0.006671 0.000113 0.005591
-0.018037 0.004085 -0.002766
-0.055852 -0.005413 -0.000917
0.064527 0.001078 0.004811
0.033761 -0.003818 -0.003357
0.013503 0.000459 0.004455
-0.012671 0.003284 -0.000783
0.057735 -0.006796 -0.002449
-0.086490 0.000456 -0.000112
0.049950 -0.002709 0.003266
0.063562 -0.005968 -0.000993
0.074734 0.001239 0.001435
-0.069482 0.003584 -0.006170
0.021347 -0.000040 -0.007106
0.040375 -0.003219 0.000448
0.086450 0.002862 -0.002582
0.016950 0.002143 -0.002793
0.005667 -0.000242 -0.006850
-0.025053 0.001681 -0.004306
-0.076586 -0.000700 -0.004637
0.051070 0.002718 0.006878
0.071236 -0.004068 -0.001485
-0.034974 -0.006110 -0.002452
0.069646 -0.005913 0.002435
0.036474 -0.005377 -0.003888
0.046622 -0.006761 -0.003082
-0.017500 0.002598 0.004173
-0.074424 0.003346 -0.006163
-0.026641 -0.001666 -0.001862
-0.007183 -0.005001 -0.004995
-0.039969 0.002901 -0.005266
-0.073888 0.003259 -0.001448
-0.067560 -0.002500 -0.003227
0.031784 -0.003006 0.005108
0.040494 0.001440 0.005516
-0.017470 0.004404 0.002506
-0.014039 -0.000858 0.000273
-0.059150 -0.000777 -0.006390
0.062545 0.006308 0.001268
-0.074468 0.003211 -0.002855
-0.057801 -0.003802 0.001076
-0.074487 -0.005445 -0.000148
0.030486 0.006937 -0.002511
0.016241 0.002690 -0.005720
0.067234 -0.004954 -0.002991
0.073169 0.000339 -0.001248
-0.045506 -0.003072 -0.006370
0.072111 0.004935 -0.001127
-0.073244 0.000687 0.003199
-0.086364 0.004043 0.003756
0.018856 -0.005744 0.000206
0.085169 0.006697 -0.000544
0.048634 -0.005349 -0.005229
-0.034968 0.002389 -0.000272
-0.006606 0.004659 0.004308
-0.080828 0.000743 0.006743
0.063516 0.003746 -0.000661
-0.033813 -0.005029 -0.002467
-0.076896 -0.002231 0.000286
0.072673 -0.005178 -0.004616
0.065207 0.006804 0.002156
0.066806 -0.002112 0.005486
0.022184 0.000087 0.000685
0.002621 -0.003350 0.001847
-0.003069 0.006094 -0.001273
-0.064546 0.000403 -0.006298
0.041206 -0.004562 -0.003980
0.080960 0.001140 -0.003656
0.014021 -0.005625 0.002465
-0.055060 0.002354 0.000655
-0.061257 0.004423 -0.001993
-0.082446 -0.001396 0.001433
-0.081340 -0.006339 0.001554
-0.054792 0.001722 -0.007277
0.037489 0.000842 0.006071
0.088311 -0.001344 0.001781
0.073014 0.003836 0.002812
0.045183 -0.002081 -0.003350
0.050682 0.003235 -0.000140
-0.020823 0.002585 -0.001195
-0.027160 -0.002203 -0.003980
0.083804 0.004198 -0.001716
-0.025446 0.005963 -0.004408
-0.038497 0.005027 0.000435
-0.022899 0.003624 0.006042
-0.005979 -0.006117 0.001266
-0.059028 0.003488 -0.000906
0.089526 -0.006255 -0.001231
-0.025489 -0.001218 0.006068
-0.004518 0.000536 0.000536
-0.023135 0.001083 -0.004766
0.084419 0.005750 0.003939
-0.005666 0.000310 0.002068
0.059751 -0.002489 -0.001567
-0.015471 -0.000032 0.003125
0.044726 -0.000919 0.001811
0.021729 -0.003851 0.006422
-0.031129 0.004488 0.003230
0.024475 0.006468 0.002384
0.007981 -0.000517 0.001832
-0.008940 0.001506 -0.001351
-0.036719 0.000192 -0.000287
-0.061568 -0.002993 -0.002428
-0.040277 0.000630 -0.003661
-0.037550 -0.000468 -0.003037
-0.000448 0.005040 0.002519
-0.062557 -0.001739 0.002771
-0.017901 0.001806 0.004826
0.039814 0.003071 -0.002408
0.073134 0.005537 0.001825
0.069041 0.001564 -0.000999
0.065414 0.001476 -0.004746
0.063811 0.005600 -0.002839
0.015865 0.001249 0.005097
0.064759 -0.000993 0.007292
-0.017471 -0.000732 -0.004197
-0.088547 -0.004133 -0.001248
0.028674 -0.001394 -0.006317
0.026313 -0.001943 -0.004059
-0.030298 0.002341 0.000204
-0.001167 0.004100 0.000729
0.033405 0.003742 0.003740
0.056298 0.006232 -0.001554
-0.082591 -0.000360 0.001053
-0.037122 0.002952 -0.000647
0.084688 -0.006219 -0.003291
0.088333 0.003624 0.004662
0.077307 -0.003304 0.000031
0.030214 -0.000458 -0.002307
0.026116 0.006853 -0.001904
0.047917 0.006729 -0.000621
-0.070136 -0.001205 0.002971
0.082195 -0.002042 -0.003071
0.077984 -0.000127 0.006513
-0.087291 -0.003666 0.006221
0.073485 0.003082 -0.002527
0.084836 -0.006003 0.002662
-0.058942 -0.001425 0.005604
0.041833 -0.003191 0.005055
0.068118 0.006315 -0.003407
-0.047742 -0.005764 -0.004217
0.057186 0.002798 -0.006272
0.067988 0.005996 -0.002919
0.012514 0.002614 0.000696
0.089088 0.001443 -0.004145
-0.038052 0.006134 -0.001237
0.002679 0.005813 0.000458
-0.067322 -0.006673 -0.001388
0.047709 -0.000060 -0.001909
-0.076090 -0.005123 -0.000624
0.041729 -0.000892 0.005451
0.058434 -0.000084 -0.005842
-0.021112 0.002338 0.005130
0.008119 -0.004204 -0.001284
0.026661 -0.004749 0.002476
-0.034109 -0.004957 -0.003807
-0.053398 0.002987 0.005135
-0.003109 0.005158 -0.003870
-0.016727 -0.004982 -0.002788
0.064813 -0.006034 0.000832
0.065225 -0.005920 -0.002550
0.083210 -0.006645 0.003190
-0.050323 -0.004323 -0.004703
0.040807 0.002713 -0.002565
-0.088494 0.000432 -0.004082
0.068801 -0.003170 0.004318
-0.029809 0.002018 -0.004993
0.040502 0.000022 0.006002
-0.034070 0.001351 0.003751
-0.061648 0.004421 -0.004541
-0.046520 0.006242 0.001775
0.003904 -0.002265 -0.001201
0.085935 0.003514 0.000412
-0.010262 0.000382 -0.002048
-0.038214 -0.003933 0.000453
-0.047995 0.003431 0.002673
0.050230 -0.000801 0.003790
0.069030 -0.002991 0.005092
0.003640 -0.001868 -0.001186
-0.058508 -0.004581 0.005454
0.004035 0.005158 0.001972
0.080303 0.002539 0.003843
0.089436 0.004350 -0.003647
0.044747 0.007271 -0.000478
0.062244 -0.003670 -0.001106
0.030111 -0.004856 -0.004430
-0.041882 -0.002982 -0.004591
0.058519 -0.004134 -0.004635
-0.006967 -0.001260 -0.001910
-0.066297 0.003593 -0.004507
-0.066165 -0.004049 0.001676
0.070902 0.002062 0.006582
0.059651 0.006415 -0.000643
0.049695 -0.003713 -0.003749
0.010149 0.002021 -0.007181
-0.012894 -0.003281 -0.006040
0.023202 -0.000757 -0.000651
-0.081461 0.005806 0.003373
-0.058252 -0.001209 0.006323
0.016132 0.001962 0.005243
-0.020051 0.004533 -0.003880
-0.062247 0.000720 0.005167
-0.035778 -0.002506 0.001175
-0.055364 -0.000832 0.003138
0.029610 -0.002191 -0.002025
0.003188 0.003964 0.004228
-0.030406 -0.006586 -0.002102
0.011920 -0.001705 -0.006658
-0.040324 -0.001323 -0.000222
-0.089849 0.002614 0.004720
-0.073710 0.000065 -0.001929
-0.087243 -0.002105 0.003620
-0.066684 -0.003834 0.004358
-0.073957 0.002000 -0.004016
0.061453 0.002952 0.002515
-0.064467 -0.003424 -0.002645
-0.003697 0.006887 0.001018
0.076436 -0.005433 -0.005086
0.071452 -0.001042 -0.002621
-0.062231 0.002468 0.002224
-0.000860 0.006457 -0.000989
-0.059028 -0.001805 -0.000642
-0.062757 0.000402 -0.007094
0.046454 -0.005316 0.001297
-0.002407 -0.003968 0.005191
-0.083369 0.005766 0.002756
0.055115 -0.003983 -0.000699
0.014623 -0.001011 -0.000793
0.053279 -0.001840 0.000278
-0.005514 0.005002 -0.002553
0.052239 -0.002345 -0.007039
-0.049108 0.006963 -0.000572
0.018016 0.001190 0.004062
-0.003133 -0.003161 0.001809
0.082669 0.003138 0.001117
0.085216 -0.002099 -0.001633
0.005801 -0.004612 -0.005505
0.073389 0.004140 -0.005822
-0.016598 0.001603 -0.004038
0.040316 -0.000168 0.001114
0.027632 0.006370 -0.000971
-0.067553 0.005797 0.000934
-0.066703 0.000958 -0.006822
0.034099 0.002752 -0.001324
0.013673 0.000663 0.006832
-0.039826 -0.002242 0.006183
0.065306 -0.006816 -0.001583
-0.067866 0.002032 0.004445
0.084075 -0.001572 0.004565
0.079679 0.003350 -0.006398
-0.061290 -0.001554 0.002050
-0.063565 -0.004785 0.002719
-0.013006 0.000220 -0.006866
0.087288 -0.002096 -0.004064
-0.002542 -0.003842 0.000905
-0.080495 -0.000713 0.007459
-0.019191 -0.000911 0.001452
0.031852 0.005053 0.002669
0.078989 0.000366 -0.000743
0.061935 -0.001426 -0.005380
-0.049498 0.002798 0.003870
-0.013056 -0.001378 -0.001846
-0.032503 0.003342 0.005136
0.020910 0.000455 0.004686
-0.021104 0.007118 -0.001253
-0.015738 0.002036 -0.001067
0.033572 -0.000358 0.005175
-0.077280 0.006383 0.000845
0.063070 0.003155 -0.004692
-0.021098 -0.000021 -0.001422
-0.040914 -0.000957 0.004535
-0.015997 0.005042 0.002440
-0.035296 -0.005942 0.003661
0.062489 0.004366 0.001662
0.079193 0.007180 -0.001280
-0.069237 -0.004076 -0.000364
0.083255 0.006511 0.000625
-0.060584 -0.002739 -0.002883
-0.016979 0.003411 -0.000798
-0.051958 0.000171 0.004637
-0.047305 0.002322 0.003710
0.036261 -0.002337 -0.004396
-0.048870 0.001358 -0.003948
0.007239 -0.005998 -0.002519
-0.031384 -0.004694 0.000651
-0.015457 -0.004380 0.002213
0.044740 -0.000240 -0.000936
-0.089837 -0.004620 -0.001814
-0.041292 0.006861 -0.001970
-0.029648 0.004980 0.001700
-0.003467 -0.007148 0.001076
-0.033265 -0.004490 0.005222
0.003797 -0.001524 -0.006425
0.019212 -0.002395 0.004390
-0.024712 -0.006018 -0.001153
-0.004346 0.002188 0.001361
-0.023957 0.002630 0.006843
-0.033036 0.000189 0.002158
0.035241 -0.001327 0.000816
0.059989 0.003306 0.002621
-0.028238 -0.004643 0.004629
-0.082092 -0.005631 0.000959
-0.011996 0.000626 -0.002047
0.089415 0.000982 0.000452
-0.034275 0.005710 -0.002712
-0.031545 0.001329 0.003859
-0.002105 0.001382 0.004805
-0.041602 -0.004308 -0.005906
0.050634 -0.004128 0.002458
0.084245 -0.004614 -0.001097
-0.052061 -0.002279 -0.003017
0.015859 0.003261 0.001444
-0.025533 -0.002902 0.001763
0.000867 -0.000025 0.000399
0.030720 -0.002644 0.002717
-0.053624 -0.001090 -0.006596
-0.076484 -0.002871 0.003010
0.068257 0.003312 0.006556
-0.012420 0.001615 -0.002585
0.026424 -0.003067 -0.003064
-0.033799 0.001617 -0.004421
-0.061834 -0.001042 0.001232
-0.064644 0.001534 -0.007181
-0.073151 -0.002837 -0.006018
-0.000301 0.006751 0.002929
-0.070571 0.004393 0.000425
-0.051198 -0.003669 -0.004242
-0.039153 0.005447 0.000119
-0.049749 -0.002482 -0.002971
0.080339 0.001221 -0.006365
0.075222 0.004632 -0.003703
-0.030377 -0.003444 -0.001501
0.039090 -0.005314 0.001102
0.069693 0.003901 -0.000705
-0.047272 0.004290 -0.002789
0.057504 0.004979 -0.000194
-0.060301 0.001037 -0.005752
-0.043505 -0.004004 0.004865
-0.040834 -0.005824 -0.000403
-0.025025 -0.000404 -0.000660
-0.019221 0.004389 0.002615
-0.087312 -0.003397 0.001009
-0.047133 -0.003021 0.004778
-0.020764 0.000790 0.001945
-0.016156 0.000080 -0.000729
-0.077921 -0.003065 -0.001010
-0.048356 -0.000636 -0.003645
-0.054237 0.001866 0.006402
0.056009 -0.004867 0.003970
-0.061139 -0.000701 0.004773
-0.053930 -0.005654 0.004218
0.003386 -0.003862 0.003011
-0.049252 0.002722 -0.006524
-0.028657 0.001203 0.003088
-0.038098 -0.001363 -0.002816
-0.061937 -0.002385 0.003551
-0.007572 0.002427 0.001339
-0.046847 -0.001676 0.003949
-0.050256 -0.004079 0.001220
-0.061009 -0.001516 -0.006268
-0.054515 -0.002086 -0.001499
0.082757 0.003624 -0.000652
0.051493 0.003884 0.003194
-0.069002 -0.004383 -0.005410
0.085073 -0.006542 0.000004
-0.064143 0.005118 0.001356
0.081654 0.003827 -0.004229
-0.055318 0.002134 0.007064
0.036429 0.000102 -0.000510
-0.002075 -0.000444 0.001041
0.048157 -0.000515 -0.004387
0.017554 0.005122 0.002388
0.086760 -0.005409 -0.005183
-0.012926 -0.000051 -0.001774
0.077627 0.002176 -0.001710
-0.050241 0.000663 -0.006222
-0.027292 -0.005210 -0.001436
-0.069868 0.000355 -0.001540
-0.032413 0.000488 -0.005431
0.013395 0.001832 -0.005136
-0.061505 -0.002821 0.000884
-0.001428 -0.007310 0.001546
0.038573 0.002380 0.003502
-0.060444 0.007360 0.001000
-0.026126 -0.004543 0.003090
0.010965 -0.001481 0.003356
0.064745 -0.001181 -0.002195
0.020607 -0.003768 -0.005886
-0.010845 0.005668 0.002235
-0.052508 -0.006129 0.003727
-0.055954 -0.006093 -0.002599
-0.031331 0.004482 -0.002581
-0.064264 0.000226 0.001817
-0.009547 0.004387 0.002212
-0.039534 -0.000999 -0.002747
-0.057569 0.002580 0.001974
-0.052066 -0.004868 -0.000138
0.005346 -0.003205 -0.002739
-0.011816 0.006549 0.003585
-0.078505 -0.003038 -0.002607
-0.033303 0.004859 0.002130
-0.046055 0.000610 0.002080
0.065031 -0.003885 0.001721
0.012320 -0.003175 -0.002490
0.054715 -0.003900 0.000469
0.045659 -0.001943 0.002742
-0.034910 -0.002608 0.002448
-0.000116 0.001764 0.005401
-0.059137 0.005311 0.005186
-0.039190 0.002061 0.003931
0.072861 0.001913 -0.001398
-0.029760 -0.004646 0.002417
-0.046611 -0.000852 -0.001369
0.059131 0.001569 0.007149
-0.054313 0.001274 -0.000506
0.041004 -0.001868 -0.001965
0.010372 0.001496 -0.002463
-0.033190 0.002292 0.003855
0.030167 0.002744 -0.005992
0.082043 0.004853 -0.002474
-0.003665 -0.002573 0.002687
-0.080316 -0.000711 -0.001359
-0.077439 -0.004079 0.001485
-0.025173 -0.004475 0.005400
-0.045648 0.004005 -0.005145
0.056589 -0.001565 0.003776
0.028007 -0.002216 -0.003245
-0.045775 0.001616 -0.005494
0.080898 -0.006068 -0.000731
0.015463 0.001571 0.004238
0.065250 0.002300 0.000353
0.010853 -0.005322 0.001893
0.021813 -0.003085 0.003679
0.022426 -0.002304 -0.001916
0.058410 0.006505 -0.000063
0.035911 0.001927 -0.001980
-0.035989 -0.001002 -0.000993
-0.067122 0.004609 -0.003687
0.030460 -0.001818 -0.005128
0.007779 -0.002516 -0.003074
0.035424 -0.000332 -0.001848
-0.005033 -0.005629 0.002641
-0.004280 0.000452 0.001824
0.042108 0.002137 0.006958
-0.000076 0.001058 0.001493
0.055889 -0.004922 0.004266
0.034846 -0.002836 -0.005823
-0.046299 -0.003329 -0.003657
-0.057542 -0.002970 -0.004659
-0.014818 -0.004965 0.004543
0.029096 0.006646 -0.001466
0.031883 -0.001506 -0.004553
0.024073 0.004415 0.004750
0.031189 -0.002269 -0.001204
-0.079514 -0.004001 0.001845
0.075780 -0.003693 0.000990
-0.004986 -0.002850 -0.005760
0.023959 0.005784 -0.001666
0.033454 -0.001771 -0.001490
0.003808 -0.000173 -0.007066
0.055030 -0.005339 0.001725
-0.048761 -0.002387 0.005221
-0.064177 0.000352 0.005181
0.011518 -0.001162 -0.001240
-0.042453 -0.005207 0.002715
0.084580 0.002728 0.000772
-0.079661 -0.001545 0.004984
-0.070164 0.000744 0.006730
-0.007012 -0.000438 -0.005063
0.056911 0.001060 0.002733
0.053989 -0.003705 -0.000254
-0.047535 0.003473 -0.003106
-0.046963 0.001885 -0.000328
0.010375 -0.006999 0.001426
-0.007881 -0.001195 0.002865
0.086839 0.003975 0.004769
0.007373 0.001665 0.004780
0.069271 -0.004729 -0.000977
0.001176 0.001419 0.003589
-0.013733 -0.003648 0.000682
0.050796 0.002667 -0.006004
-0.079094 -0.003042 -0.005397
-0.088563 0.003488 0.000696
0.036106 -0.005354 0.002045
0.049825 -0.000989 -0.001655
-0.040516 -0.001709 -0.005165
-0.039984 0.004834 -0.004213
-0.025044 0.001291 0.002666
-0.056762 -0.004798 -0.000733
0.080388 -0.000026 0.004161
-0.026972 0.000449 0.003507
0.074067 0.003981 -0.005611
-0.074471 -0.000141 -0.003467
-0.009284 -0.003246 -0.002710
-0.068431 0.005981 0.001355
0.018175 -0.000530 -0.001681
0.019366 0.004047 -0.004525
0.048358 -0.000403 0.003269
-0.055390 -0.001964 0.004344
-0.052544 0.000972 -0.006360
0.071267 -0.000164 0.004125
-0.043907 -0.001958 -0.003655
0.077931 -0.001193 0.000638
-0.044992 0.000970 -0.002890
0.065628 -0.000138 -0.000128
0.003769 -0.001619 0.004466
0.048730 0.006707 -0.000190
0.036906 0.001871 0.000006
-0.028617 0.005047 -0.001876
0.011733 0.001367 -0.003571
-0.042354 -0.002693 0.000257
0.008146 -0.000052 0.000002
-0.023920 0.000319 0.005023
-0.086526 0.004026 -0.003415
0.040451 -0.003669 -0.000375
0.077444 -0.004551 -0.003238
-0.037968 -0.006736 -0.002844
0.083045 0.005551 -0.001111
0.058476 0.001421 -0.005541
0.031993 -0.006268 -0.001876
-0.003264 -0.002890 -0.001101
0.060880 -0.001832 -0.001835
-0.011751 0.000007 0.003834
-0.052909 0.002064 -0.007053
0.055692 0.003821 0.000912
-0.077097 -0.003142 -0.000571
-0.032771 -0.003010 -0.003294
-0.014024 0.004753 0.003277
0.041132 -0.002919 -0.004517
-0.021844 0.006457 0.003179
-0.039124 0.006006 -0.002309
-0.071331 -0.004342 -0.000847
-0.080795 -0.001457 0.001941
-0.026282 -0.001743 0.005253
0.032354 -0.003290 -0.001882
-0.065335 0.000134 0.002282
-0.001809 -0.002596 -0.004754
-0.084903 0.002940 0.003168
0.038229 0.000635 -0.001666
-0.032601 -0.000784 -0.006584
-0.042552 0.001199 0.004624
0.009225 -0.003176 0.000460
-0.068114 -0.003288 -0.003155
-0.068762 -0.000232 0.000331
-0.064800 0.003031 0.001768
-0.088576 0.005292 0.003697
-0.081924 -0.003877 -0.003487
-0.061742 -0.003987 0.005514
-0.009948 -0.005960 -0.004411
0.006328 0.001964 0.000630
0.056324 -0.004932 -0.005241
0.033167 -0.003125 0.003383
-0.003069 -0.000570 0.004255
-0.004959 -0.005073 0.004529
-0.013481 -0.004080 -0.004499
-0.023007 -0.001124 0.006208
-0.030941 0.000702 0.006385
0.074919 -0.001850 0.007192
-0.022918 -0.007041 0.001891
-0.003070 -0.002657 -0.005381
-0.019967 0.002355 -0.000936
-0.070083 0.001612 -0.006005
0.057359 -0.000539 -0.003271
-0.045296 -0.001615 -0.006954
-0.051200 -0.000503 0.000128
-0.089612 0.002913 -0.003983
-0.072122 0.000005 -0.006341
0.001209 0.006281 0.000786
-0.017250 -0.006621 -0.001118
0.067364 -0.005263 0.002542
-0.001615 0.001681 0.002605
-0.028220 0.005630 -0.002555
0.059632 0.003235 0.002473
0.028132 0.005005 0.001129
0.033016 0.001773 -0.006997
-0.080045 0.001546 -0.003875
0.082590 0.003993 0.005434
0.029895 -0.001712 -0.005640
-0.066624 -0.004246 0.000275
0.079414 0.002413 0.000525
0.070948 -0.000571 0.004819
-0.009877 -0.006063 0.001327
-0.033119 0.003949 0.004350
0.029444 0.001094 0.006094
0.061705 -0.006670 0.001028
0.057531 -0.003134 -0.005151
-0.047351 -0.001906 -0.005718
0.085323 -0.000050 -0.006312
-0.010246 0.002680 0.005594
-0.026197 -0.000037 0.003916
0.061961 0.005762 -0.002062
0.014840 0.000551 -0.001888
0.048553 0.007221 -0.000168
0.062487 0.006428 0.002736
-0.076012 0.007178 0.001485
-0.016885 -0.002182 -0.002312
0.081721 0.006281 -0.000575
-0.002328 -0.001300 0.003713
-0.046382 0.005875 0.002531
0.080711 0.006996 -0.002324
-0.009486 -0.001873 -0.001060
-0.080538 -0.004157 -0.000389
0.066214 -0.001233 -0.005780
0.059119 -0.001707 0.002697
0.030889 0.007016 -0.000272
0.004683 0.003459 -0.001204
0.046209 -0.006892 0.000693
0.045398 -0.004331 0.006098
0.047312 -0.000423 -0.003571
-0.016841 0.003586 -0.003076
-0.074020 -0.002701 -0.005424
-0.052246 0.002827 0.003782
-0.036503 -0.003239 0.002373
-0.084621 -0.000051 0.006700
0.010758 -0.000170 -0.006255
-0.072583 -0.003353 -0.004582
0.085313 -0.003339 -0.005196
-0.018909 -0.002168 0.003078
-0.017264 0.000864 0.005660
0.040542 -0.006698 -0.002236
0.051454 0.006619 -0.000863
-0.085757 0.003135 0.004954
-0.056365 -0.002190 0.001211
0.051604 0.003502 0.002820
0.072769 0.003465 -0.004564
-0.034583 0.000324 -0.007443
0.031648 0.004920 0.002537
0.000930 -0.004779 -0.000564
-0.083731 0.002605 0.005001
-0.061537 0.006749 0.002121
-0.054234 -0.004872 -0.001442
-0.044501 -0.002379 -0.001284
0.084408 0.002440 -0.002539
0.061236 -0.000682 0.004877
-0.074825 -0.000295 -0.003539
0.029232 -0.003810 0.004030
-0.014983 -0.006385 0.000171
-0.047043 -0.004069 -0.004293
0.059671 -0.001391 -0.003646
0.067612 0.001016 -0.002404
-0.044574 -0.002923 0.006035
0.000849 -0.002115 -0.000803
0.024156 0.001944 0.001096
-0.012186 -0.000427 0.001185
0.000328 0.005293 0.004441
0.062579 0.003632 0.005499
0.012102 0.006616 0.003198
-0.039914 -0.000115 -0.003186
-0.061248 0.006577 -0.003373
-0.063971 -0.005667 -0.001938
-0.035038 -0.003871 0.006366
-0.078292 0.004399 -0.000239
0.020744 0.000881 0.000556
0.046452 -0.001703 0.003020
0.049238 -0.002166 -0.000168
-0.085731 0.002111 0.005541
0.084410 0.000493 0.004672
0.057554 0.001191 0.001995
0.006088 0.006750 -0.002835
0.003238 -0.004413 -0.000844
-0.076495 -0.006307 0.002710
0.044374 0.003392 -0.004741
-0.003330 0.005951 -0.002581
-0.084892 -0.001160 -0.000116
-0.050238 0.005302 -0.002500
0.041214 -0.003802 -0.000768
0.051715 0.002536 -0.005693
0.063154 -0.001226 0.006962
0.019381 0.004932 -0.004759
-0.071084 0.004706 0.004942
-0.067360 0.004804 0.003450
0.023930 -0.000695 -0.006478
0.011313 -0.006290 0.001027
0.046733 0.003372 -0.000258
-0.060623 -0.003828 -0.002997
-0.020602 0.006217 -0.000314
-0.063203 -0.006982 0.001617
-0.075768 -0.003539 0.001504
-0.083036 -0.000777 0.005993
-0.023066 -0.003725 -0.003021
-0.057889 0.000075 0.004774
0.070399 0.000656 -0.006262
0.009818 -0.003587 -0.005998
0.007259 -0.003633 -0.004031
-0.032640 -0.001457 0.007179
0.036394 -0.006554 0.001175
0.041192 -0.001355 0.004551
0.003711 -0.003857 -0.000692
-0.048354 -0.004203 -0.000536
0.069225 0.002252 -0.007146
0.055588 -0.000071 -0.000390
-0.049031 -0.001657 0.006958
-0.062763 -0.004180 0.003304
-0.079426 0.003954 -0.001645
0.076127 -0.000501 -0.000516
